-2.153911352157592773e+00 -1.150080561637878418e+00 -5.881633162498474121e-01
-2.125712871551513672e+00 -8.874179124832153320e-01 -6.976791620254516602e-01
-2.066347837448120117e+00 -5.837109088897705078e-01 -7.691230177879333496e-01
-1.994321107864379883e+00 -2.602012455463409424e-01 -8.099549412727355957e-01
-1.910836577415466309e+00 7.564964145421981812e-02 -8.296337127685546875e-01
-1.848265647888183594e+00 4.099276661872863770e-01 -8.105055093765258789e-01
-2.112062931060791016e+00 4.964006543159484863e-01 -6.864148378372192383e-01
-1.810147404670715332e+00 -8.935984969139099121e-01 -7.912686467170715332e-01
-1.738904953002929688e+00 -5.535432696342468262e-01 -8.234798908233642578e-01
-1.657001614570617676e+00 -1.955062448978424072e-01 -8.508617877960205078e-01
-1.562314152717590332e+00 2.020932734012603760e-01 -8.752729892730712891e-01
-2.394720077514648438e+00 2.598337531089782715e-01 -4.885130822658538818e-01
-2.271618127822875977e+00 -1.923262476921081543e-01 -6.702766418457031250e-01
-2.457134962081909180e+00 -8.029970526695251465e-02 -4.417174756526947021e-01
-2.325617313385009766e+00 -5.071665644645690918e-01 -6.059538125991821289e-01
-2.480947017669677734e+00 -3.852879703044891357e-01 -3.548060059547424316e-01
-2.354348659515380859e+00 -7.860246896743774414e-01 -4.869539737701416016e-01
-2.501126766204833984e+00 3.457923233509063721e-01 -2.161883860826492310e-01
-2.463759660720825195e+00 -6.422912478446960449e-01 -1.843917071819305420e-01
-1.405285716056823730e+00 -4.499047398567199707e-01 -7.883421778678894043e-01
-2.522455692291259766e+00 -2.765909135341644287e-01 -5.418883264064788818e-02
-2.539225101470947266e+00 2.908813394606113434e-02 -1.427980214357376099e-01
-2.499807357788085938e+00 3.845380246639251709e-01 1.130383014678955078e-01
-2.196660280227661133e+00 1.472566276788711548e-01 -6.984660029411315918e-01
7.378461956977844238e-01 7.014042735099792480e-01 5.090574026107788086e-01
1.833799481391906738e+00 1.625611633062362671e-01 8.293535113334655762e-01
1.619389533996582031e+00 -1.187808364629745483e-01 8.618114590644836426e-01
1.709956407546997070e+00 5.286189317703247070e-01 8.080003261566162109e-01
1.505541920661926270e+00 2.556330859661102295e-01 8.129712343215942383e-01
1.306977272033691406e+00 -3.313770145177841187e-02 8.175614476203918457e-01
1.093788027763366699e+00 -2.985900342464447021e-01 8.382575511932373047e-01
1.716612696647644043e+00 -5.071465969085693359e-01 8.469367623329162598e-01
1.420575857162475586e+00 -4.178138673305511475e-01 8.816987872123718262e-01
1.193825840950012207e+00 3.241708278656005859e-01 7.180473208427429199e-01
9.908035993576049805e-01 4.429312050342559814e-02 7.198653817176818848e-01
3.977227807044982910e-01 7.318528890609741211e-01 4.246458113193511963e-01
2.018050849437713623e-01 -3.897588551044464111e-01 7.880179286003112793e-01
1.065375447273254395e+00 6.689651012420654297e-01 6.298116445541381836e-01
8.798810839653015137e-01 3.731723129749298096e-01 5.972446799278259277e-01
6.735451221466064453e-01 9.060037136077880859e-02 6.134651899337768555e-01
8.736792802810668945e-01 -5.763976573944091797e-01 8.861893415451049805e-01
5.486266016960144043e-01 -4.832478761672973633e-01 8.403509259223937988e-01
7.714253067970275879e-01 -2.267751991748809814e-01 7.639519572257995605e-01
4.443706274032592773e-01 -1.685550212860107422e-01 6.855987310409545898e-01
3.505924046039581299e-01 1.299679875373840332e-01 5.439163446426391602e-01
5.635773539543151855e-01 4.070732891559600830e-01 4.947755634784698486e-01
-1.331440925598144531e+00 -1.933010697364807129e+00 -6.191164851188659668e-01
-9.329282641410827637e-01 -1.537778258323669434e+00 -6.603763103485107422e-01
-9.838037490844726562e-01 -1.861958742141723633e+00 -6.669218540191650391e-01
-7.110403776168823242e-01 -2.329413652420043945e+00 -5.674013495445251465e-01
-3.666499555110931396e-01 -2.005371093750000000e+00 -6.747442483901977539e-01
-6.986786723136901855e-01 -2.088235616683959961e+00 -6.626731157302856445e-01
-1.030267715454101562e+00 -2.136879205703735352e+00 -6.036810874938964844e-01
-1.866498112678527832e+00 -1.205124258995056152e+00 -7.331556677818298340e-01
-6.244835853576660156e-01 -1.753908991813659668e+00 -6.492943763732910156e-01
-5.873261094093322754e-01 -1.406602382659912109e+00 -6.014901995658874512e-01
-8.707745075225830078e-01 -8.291243314743041992e-01 -6.044553518295288086e-01
-1.611696243286132812e+00 -1.722781062126159668e+00 -6.359857916831970215e-01
-1.280492782592773438e+00 -1.659095764160156250e+00 -6.888121962547302246e-01
-1.581000328063964844e+00 -1.455545425415039062e+00 -7.211995720863342285e-01
-1.242767095565795898e+00 -1.342424273490905762e+00 -7.058247327804565430e-01
-1.197567224502563477e+00 -9.991531372070312500e-01 -7.005827426910400391e-01
-1.144346952438354492e+00 -6.472278833389282227e-01 -6.942485570907592773e-01
-1.027978181838989258e+00 -2.297405004501342773e+00 -4.244940876960754395e-01
-9.041607379913330078e-01 -1.193164229393005371e+00 -6.328189969062805176e-01
-3.697066903114318848e-01 -2.294706583023071289e+00 -6.483848690986633301e-01
-1.474189162254333496e+00 -8.010501265525817871e-01 -7.761443257331848145e-01
-1.534361720085144043e+00 -1.141733527183532715e+00 -7.605115175247192383e-01
-2.444020509719848633e+00 7.042065858840942383e-01 4.292160645127296448e-02
-2.413406848907470703e+00 6.995362639427185059e-01 -2.466286867856979370e-01
-1.849211812019348145e+00 1.719132065773010254e+00 -1.459956616163253784e-01
-1.877470374107360840e+00 1.772318482398986816e+00 1.641675978899002075e-01
-2.126804113388061523e+00 1.014115810394287109e+00 5.485829710960388184e-01
-1.870399713516235352e+00 1.015951991081237793e+00 7.276864051818847656e-01
-1.911842584609985352e+00 1.336057662963867188e+00 5.837354063987731934e-01
-1.617044210433959961e+00 1.576188683509826660e+00 6.459137201309204102e-01
-2.072496891021728516e+00 1.426497578620910645e+00 -1.801104098558425903e-01
-1.622428774833679199e+00 1.829493999481201172e+00 5.020509362220764160e-01
-1.565094828605651855e+00 2.024559259414672852e+00 3.492809534072875977e-01
-1.512680530548095703e+00 1.057508707046508789e+00 7.939595580101013184e-01
-1.302615046501159668e+00 1.407481551170349121e+00 7.554994225502014160e-01
-1.635017156600952148e+00 1.296923518180847168e+00 7.301523685455322266e-01
-1.902005434036254883e+00 1.601593255996704102e+00 4.016485810279846191e-01
-2.294550418853759766e+00 9.867106080055236816e-01 2.786304056644439697e-01
-2.313338518142700195e+00 1.080645203590393066e+00 1.993911899626255035e-02
-2.263377189636230469e+00 1.077324509620666504e+00 -2.384734302759170532e-01
-2.122204542160034180e+00 1.433400154113769531e+00 8.836484700441360474e-02
-2.300439834594726562e+00 6.195719242095947266e-01 -4.949613511562347412e-01
-1.305093288421630859e+00 1.748567342758178711e+00 6.936115622520446777e-01
-2.132336139678955078e+00 1.298519849777221680e+00 3.358628749847412109e-01
-2.343744277954101562e+00 6.966772675514221191e-01 3.845981955528259277e-01
-2.147945880889892578e+00 9.825499653816223145e-01 -4.793561697006225586e-01
-1.551159620285034180e+00 -7.181825637817382812e-01 8.460908532142639160e-01
-1.517686247825622559e+00 -3.081007301807403564e-01 8.943065404891967773e-01
-2.458942174911499023e+00 -3.838075399398803711e-01 1.771447360515594482e-01
-2.093093156814575195e+00 -7.900571227073669434e-01 5.069876313209533691e-01
-2.502643346786499023e+00 4.513544216752052307e-02 1.799411624670028687e-01
-1.460123419761657715e+00 8.471690118312835693e-02 8.831688165664672852e-01
-2.375042200088500977e+00 3.928451538085937500e-01 4.230246245861053467e-01
-2.396544456481933594e+00 -8.089408874511718750e-01 2.220975421369075775e-02
-1.154146313667297363e+00 -1.577532142400741577e-01 8.992467522621154785e-01
-2.302897691726684570e+00 -6.318961381912231445e-01 3.327982127666473389e-01
-1.758904218673706055e+00 7.494745254516601562e-01 8.048773407936096191e-01
-1.580791473388671875e+00 4.520304501056671143e-01 8.479641675949096680e-01
-1.792077779769897461e+00 1.658445596694946289e-01 8.294861912727355957e-01
-1.811474680900573730e+00 -1.741872876882553101e-01 8.185662031173706055e-01
-1.830724596977233887e+00 -5.664463639259338379e-01 7.576566934585571289e-01
-1.841979384422302246e+00 -9.542340636253356934e-01 6.377516388893127441e-01
-2.284962892532348633e+00 -2.675787806510925293e-01 4.694502949714660645e-01
-2.365857601165771484e+00 2.050316333770751953e-02 4.271493852138519287e-01
-2.192327022552490234e+00 3.132000863552093506e-01 6.287844181060791016e-01
-2.084313154220581055e+00 -4.032807052135467529e-01 6.356701254844665527e-01
-2.093255758285522461e+00 1.124283485114574432e-02 6.958988308906555176e-01
-2.119617938995361328e+00 6.882200241088867188e-01 6.619322299957275391e-01
-1.937712430953979492e+00 4.336176812648773193e-01 7.822914123535156250e-01
-1.304960846900939941e-01 4.179036915302276611e-01 -8.140743970870971680e-01
-8.413305282592773438e-01 3.174943327903747559e-01 -8.373880982398986816e-01
-6.023273468017578125e-01 1.219104751944541931e-01 -7.194451689720153809e-01
-7.255148887634277344e-01 -1.561429500579833984e-01 -6.371161341667175293e-01
3.979281187057495117e-01 5.509075522422790527e-01 -8.849413990974426270e-01
-3.133784830570220947e-01 6.644548773765563965e-01 -8.941738605499267578e-01
-3.485722541809082031e-01 -3.569637984037399292e-02 -6.033305525779724121e-01
-4.750588536262512207e-01 -3.098936975002288818e-01 -5.349970459938049316e-01
4.678212106227874756e-02 5.858391150832176208e-02 -6.367478966712951660e-01
-9.777222573757171631e-02 -1.917550265789031982e-01 -5.342237949371337891e-01
-1.024194955825805664e-01 9.702180624008178711e-01 -9.192224740982055664e-01
2.646582722663879395e-01 -1.772066652774810791e-01 -5.852458477020263672e-01
-1.201328158378601074e+00 2.393883913755416870e-01 -8.612564206123352051e-01
-4.763589203357696533e-01 9.730309844017028809e-01 -9.142946600914001465e-01
-8.163675665855407715e-01 -4.764455258846282959e-01 -5.975540876388549805e-01
-1.323726415634155273e+00 -9.756490588188171387e-02 -8.193389177322387695e-01
-1.073113441467285156e+00 -3.071095943450927734e-01 -7.095831632614135742e-01
-6.757323741912841797e-01 6.314259767532348633e-01 -8.989225029945373535e-01
-2.199144661426544189e-01 1.972164362668991089e-01 -7.081373333930969238e-01
1.833308339118957520e-01 3.028196692466735840e-01 -7.706557512283325195e-01
-4.826101362705230713e-01 3.844635188579559326e-01 -8.182187080383300781e-01
4.031512737274169922e-01 4.747968912124633789e-02 -7.008125782012939453e-01
6.314588338136672974e-02 6.333398818969726562e-01 -8.843023180961608887e-01
-9.690319895744323730e-01 1.340723410248756409e-02 -7.622277736663818359e-01
-8.624733686447143555e-01 -1.729041934013366699e+00 6.767520308494567871e-01
-1.613300442695617676e-01 -2.865960896015167236e-01 7.681583762168884277e-01
-3.212015926837921143e-01 -1.445076346397399902e+00 9.048803448677062988e-01
-3.099786043167114258e-01 -7.920944094657897949e-01 9.554022550582885742e-01
-5.598718523979187012e-01 -1.083382487297058105e+00 9.657570719718933105e-01
-9.711202979087829590e-01 -6.874535679817199707e-01 9.493682384490966797e-01
-1.056290268898010254e+00 -1.960449934005737305e+00 4.149459600448608398e-01
-9.201949834823608398e-01 -1.063488245010375977e+00 9.429007768630981445e-01
-6.593816280364990234e-01 -7.237851023674011230e-01 9.594996571540832520e-01
-9.889528155326843262e-01 -1.407173633575439453e+00 8.200457096099853516e-01
-5.775078758597373962e-02 -5.920912623405456543e-01 8.906142711639404297e-01
-1.264647483825683594e+00 -9.045713543891906738e-01 8.975927829742431641e-01
-8.220567107200622559e-01 -3.567173779010772705e-01 9.001791477203369141e-01
-1.271017670631408691e+00 -1.265915989875793457e+00 7.959617376327514648e-01
3.014090955257415771e-01 -7.083032131195068359e-01 9.120145440101623535e-01
-1.224746465682983398e+00 -4.995982646942138672e-01 9.318073391914367676e-01
7.153885811567306519e-02 -1.378928542137145996e+00 9.272589683532714844e-01
-2.158931344747543335e-01 -1.127423763275146484e+00 9.649395346641540527e-01
5.572143197059631348e-02 -9.472165107727050781e-01 9.607751369476318359e-01
-4.412230551242828369e-01 -4.646925330162048340e-01 8.819376230239868164e-01
-6.715412735939025879e-01 -1.419113039970397949e+00 8.826161623001098633e-01
3.810265958309173584e-01 -1.096072554588317871e+00 9.507393240928649902e-01
-1.205390453338623047e+00 -1.641844511032104492e+00 6.141920685768127441e-01
-5.057106018066406250e-01 -1.754884123802185059e+00 7.406077384948730469e-01
1.161887288093566895e+00 2.335023164749145508e+00 8.681984245777130127e-02
8.835882544517517090e-01 2.317935228347778320e+00 -1.995855271816253662e-01
1.186111807823181152e+00 2.161835432052612305e+00 -1.978362202644348145e-01
1.617332577705383301e+00 1.744215488433837891e+00 -3.324989676475524902e-01
1.683108329772949219e+00 1.344826340675354004e+00 -5.519799590110778809e-01
1.013949275016784668e+00 2.420331239700317383e+00 3.716817200183868408e-01
1.339676260948181152e+00 1.874154448509216309e+00 -3.940594196319580078e-01
9.982534646987915039e-01 1.990306258201599121e+00 -4.663766920566558838e-01
6.855324506759643555e-01 2.090467691421508789e+00 -4.871014952659606934e-01
9.845959544181823730e-01 8.789768218994140625e-01 -9.139562249183654785e-01
1.471022605895996094e+00 2.094966888427734375e+00 -3.474232554435729980e-02
1.348898768424987793e+00 2.248270273208618164e+00 3.110539019107818604e-01
7.673152685165405273e-01 5.345003008842468262e-01 -9.217140674591064453e-01
4.862146377563476562e-01 1.313793778419494629e+00 -8.647337555885314941e-01
6.151154041290283203e-01 8.865144848823547363e-01 -9.247428178787231445e-01
3.901290297508239746e-01 1.759286880493164062e+00 -7.215705513954162598e-01
2.722598016262054443e-01 9.220963120460510254e-01 -9.191111326217651367e-01
8.260956406593322754e-01 1.268492937088012695e+00 -8.455994725227355957e-01
7.364250421524047852e-01 1.686770915985107422e+00 -7.040281891822814941e-01
1.153473854064941406e+00 1.238208055496215820e+00 -7.957265377044677734e-01
1.448151767253875732e-01 1.312036037445068359e+00 -8.807594776153564453e-01
1.410600662231445312e+00 1.477909326553344727e+00 -6.131327748298645020e-01
1.385366201400756836e+00 1.007591247558593750e+00 -8.161856532096862793e-01
1.087795019149780273e+00 1.621621727943420410e+00 -6.497425436973571777e-01
-2.540309131145477295e-01 1.857752539217472076e-02 6.357349753379821777e-01
9.895405918359756470e-02 -1.004182174801826477e-01 6.452678442001342773e-01
2.128662765026092529e-01 1.078921079635620117e+00 4.263006448745727539e-01
-3.233512043952941895e-01 1.300256609916687012e+00 5.203900933265686035e-01
-1.362713575363159180e-01 1.049914598464965820e+00 4.404769241809844971e-01
-4.909124970436096191e-01 9.438563585281372070e-01 5.133663415908813477e-01
-5.764775276184082031e-01 2.051099389791488647e-01 6.523737311363220215e-01
-2.972982525825500488e-01 3.368605673313140869e-01 5.311442613601684570e-01
-5.352165102958679199e-01 5.477815866470336914e-01 5.546782016754150391e-01
-5.193637013435363770e-01 -1.500906497240066528e-01 7.709968686103820801e-01
-2.751551270484924316e-01 7.191988825798034668e-01 4.588376283645629883e-01
2.116657979786396027e-02 1.861916631460189819e-01 5.244098305702209473e-01
-5.663374066352844238e-02 4.960310459136962891e-01 4.551341533660888672e-01
7.204289734363555908e-02 7.747355699539184570e-01 4.072781801223754883e-01
2.470472604036331177e-01 4.411724209785461426e-01 4.446139633655548096e-01
-1.397521495819091797e+00 7.704663872718811035e-01 8.081553578376770020e-01
-1.108446359634399414e+00 1.843431591987609863e-01 8.219006657600402832e-01
-6.334087848663330078e-01 1.215944170951843262e+00 5.936387777328491211e-01
-8.647269010543823242e-01 1.016097784042358398e+00 6.533620953559875488e-01
-7.446319460868835449e-01 7.422555685043334961e-01 6.150196790695190430e-01
-8.650824427604675293e-01 4.182662963867187500e-01 6.958314180374145508e-01
-8.252147436141967773e-01 1.507318858057260513e-02 7.917022109031677246e-01
-1.247357606887817383e+00 4.538916349411010742e-01 8.078286647796630859e-01
-1.063585042953491211e+00 7.358894348144531250e-01 7.282081842422485352e-01
-1.186316490173339844e+00 1.075667738914489746e+00 7.526800632476806641e-01
1.981387019157409668e+00 -1.526479721069335938e+00 -1.632844060659408569e-01
2.208025455474853516e+00 -1.187147378921508789e+00 -7.542680948972702026e-02
1.824709534645080566e+00 -1.475160121917724609e+00 3.235186934471130371e-01
2.057369470596313477e+00 -1.343387365341186523e+00 -3.802049458026885986e-01
2.005701541900634766e+00 -1.180267095565795898e+00 -5.864729881286621094e-01
1.821564912796020508e+00 -1.620071291923522949e+00 -4.360466599464416504e-01
1.760174393653869629e+00 -1.489091753959655762e+00 -6.376266479492187500e-01
1.525031089782714844e+00 -1.789137125015258789e+00 -6.057468652725219727e-01
1.680094718933105469e+00 -1.816980957984924316e+00 -3.290675580501556396e-01
1.344981789588928223e+00 -2.010170698165893555e+00 -5.079859495162963867e-01
1.144436120986938477e+00 -2.174467563629150391e+00 -3.841937482357025146e-01
2.011425971984863281e+00 -1.124545931816101074e+00 4.496488869190216064e-01
1.501804351806640625e+00 -1.964268684387207031e+00 -2.101607769727706909e-01
1.805271983146667480e+00 -1.685863137245178223e+00 -1.143084838986396790e-02
1.907896399497985840e+00 -9.593470692634582520e-01 -7.353528738021850586e-01
1.662942767143249512e+00 -1.289357066154479980e+00 -7.729663848876953125e-01
1.417670488357543945e+00 -1.605945229530334473e+00 -7.619808912277221680e-01
1.183069586753845215e+00 -1.886193871498107910e+00 -7.148853540420532227e-01
2.051677465438842773e+00 -1.348329067230224609e+00 1.474914848804473877e-01
2.265001296997070312e+00 -1.002915620803833008e+00 -2.950564026832580566e-01
1.307556271553039551e+00 -1.340026497840881348e+00 -8.223889470100402832e-01
1.059924840927124023e+00 -1.627851247787475586e+00 -7.834430336952209473e-01
8.183333277702331543e-01 -1.897043228149414062e+00 -7.439888119697570801e-01
9.873744845390319824e-01 -2.111803531646728516e+00 -6.368821859359741211e-01
6.344304084777832031e-01 1.903038382530212402e+00 6.484588980674743652e-01
4.082964658737182617e-01 1.356574416160583496e+00 4.994990527629852295e-01
8.955181837081909180e-01 2.083287477493286133e+00 6.608569025993347168e-01
1.336549878120422363e+00 1.595882534980773926e+00 7.054266333580017090e-01
9.965018033981323242e-01 1.736230134963989258e+00 6.737846732139587402e-01
1.378605604171752930e+00 6.225169301033020020e-01 7.441737651824951172e-01
1.791086077690124512e+00 1.129699945449829102e+00 7.412694692611694336e-01
1.076702237129211426e+00 1.361848354339599609e+00 6.519238948822021484e-01
9.248699545860290527e-01 1.001764774322509766e+00 5.777088403701782227e-01
2.034169197082519531e+00 1.294458270072937012e+00 6.233745217323303223e-01
1.149436831474304199e+00 2.226541519165039062e+00 5.540073513984680176e-01
1.246783375740051270e+00 1.933988094329833984e+00 6.636077761650085449e-01
1.239327192306518555e+00 9.909604191780090332e-01 6.837954521179199219e-01
1.574831128120422363e+00 8.947662115097045898e-01 7.640329599380493164e-01
1.435675024986267090e+00 1.256721258163452148e+00 7.243754267692565918e-01
1.692291021347045898e+00 1.462836742401123047e+00 7.077121734619140625e-01
1.589499473571777344e+00 1.774409890174865723e+00 6.453287601470947266e-01
1.919588327407836914e+00 7.647230029106140137e-01 7.689228653907775879e-01
7.127736806869506836e-01 1.579398632049560547e+00 6.046785712242126465e-01
2.119256019592285156e+00 9.671395421028137207e-01 6.610686779022216797e-01
7.514004111289978027e-01 1.276814937591552734e+00 5.593624711036682129e-01
5.600644350051879883e-01 1.013900995254516602e+00 4.716329872608184814e-01
2.482080221176147461e+00 4.231830239295959473e-01 3.981579840183258057e-01
2.399998664855957031e+00 -1.694263517856597900e-01 4.698431491851806641e-01
2.489252328872680664e+00 -3.945244848728179932e-01 1.510041356086730957e-01
2.536497354507446289e+00 -1.981662064790725708e-01 -4.790434613823890686e-02
2.359074354171752930e+00 -5.829524397850036621e-01 3.427977859973907471e-01
2.378747701644897461e+00 -8.056651949882507324e-01 2.396526001393795013e-02
1.869009733200073242e+00 -8.648986220359802246e-01 7.033755183219909668e-01
2.239072561264038086e+00 -9.847074151039123535e-01 2.331696301698684692e-01
2.373128175735473633e+00 7.703078389167785645e-01 4.789294898509979248e-01
2.522710323333740234e+00 1.688562333583831787e-02 2.914846837520599365e-01
2.430121898651123047e+00 -6.139228940010070801e-01 -1.833428442478179932e-01
2.390587329864501953e+00 -4.251024425029754639e-01 -3.833191990852355957e-01
2.522298097610473633e+00 3.849474787712097168e-01 -9.037303179502487183e-02
2.496625661849975586e+00 -1.254507992416620255e-02 -2.475534826517105103e-01
2.158127546310424805e+00 -7.619866132736206055e-01 5.160487890243530273e-01
2.216041088104248047e+00 -3.550752103328704834e-01 6.151833534240722656e-01
1.993461251258850098e+00 -5.378195047378540039e-01 7.226689457893371582e-01
2.162086486816406250e+00 2.312221005558967590e-02 7.153950929641723633e-01
1.933597683906555176e+00 -1.965917199850082397e-01 8.048269152641296387e-01
2.235052347183227539e+00 5.912030339241027832e-01 6.568852663040161133e-01
2.221112251281738281e+00 -8.211784958839416504e-01 -4.969312846660614014e-01
2.297823905944824219e+00 -1.887331455945968628e-01 -5.447099208831787109e-01
2.351839065551757812e+00 2.265802770853042603e-01 5.823367834091186523e-01
2.560593366622924805e+00 2.216390073299407959e-01 1.025850400328636169e-01
2.049464225769042969e+00 3.899544477462768555e-01 7.687431573867797852e-01
-2.784596979618072510e-01 -1.242258787155151367e+00 -5.483524203300476074e-01
-2.985195815563201904e-01 -8.659141659736633301e-01 -4.982351958751678467e-01
-5.891263484954833984e-01 -1.035100936889648438e+00 -5.523888468742370605e-01
-5.517869591712951660e-01 -6.542915701866149902e-01 -5.194832682609558105e-01
-3.446443006396293640e-02 -2.245784282684326172e+00 -6.859409213066101074e-01
-6.812927126884460449e-02 -1.952881693840026855e+00 -6.838607192039489746e-01
-2.572533488273620605e-01 -1.631411552429199219e+00 -6.188145875930786133e-01
1.223836317658424377e-01 -4.245154857635498047e-01 -5.139223337173461914e-01
4.430469572544097900e-01 -4.908762872219085693e-01 -5.789422392845153809e-01
2.558490037918090820e-01 -2.078545093536376953e+00 -7.105332612991333008e-01
1.398691684007644653e-01 -1.724498271942138672e+00 -6.644768118858337402e-01
3.929632306098937988e-01 -1.472627401351928711e+00 -6.506502628326416016e-01
6.459631919860839844e-01 -1.210089206695556641e+00 -6.641012430191040039e-01
5.721872448921203613e-01 -8.543117046356201172e-01 -6.092957854270935059e-01
-2.363967001438140869e-01 -4.822760522365570068e-01 -4.883968830108642578e-01
-2.433913946151733398e-02 -7.004266977310180664e-01 -4.960223436355590820e-01
2.737927734851837158e-01 -7.681902647018432617e-01 -5.323885679244995117e-01
1.447724271565675735e-02 -1.037894129753112793e+00 -5.217828750610351562e-01
3.276272416114807129e-01 -1.127936005592346191e+00 -5.756174921989440918e-01
6.025117635726928711e-01 -2.140444993972778320e+00 -6.984736323356628418e-01
4.742495119571685791e-01 -1.827435016632080078e+00 -7.164933681488037109e-01
7.186190485954284668e-01 -1.565632343292236328e+00 -7.280990481376647949e-01
4.694145917892456055e-02 -1.393981337547302246e+00 -5.871194005012512207e-01
-3.714999556541442871e-01 -2.474698781967163086e+00 -2.311526089906692505e-01
-3.657892942428588867e-01 -2.458149671554565430e+00 -4.882710576057434082e-01
4.592579975724220276e-02 -2.041837930679321289e+00 5.599490404129028320e-01
2.356550991535186768e-01 -1.744898796081542969e+00 7.637590765953063965e-01
-6.764317154884338379e-01 -2.378495454788208008e+00 -4.820792004466056824e-02
6.009212136268615723e-01 -2.380579710006713867e+00 -1.252085119485855103e-01
3.488314449787139893e-01 -2.330587387084960938e+00 -6.311875581741333008e-01
-5.338227152824401855e-01 -2.243026018142700195e+00 2.885124385356903076e-01
-7.046405673027038574e-01 -2.016101837158203125e+00 4.947809576988220215e-01
-8.758440017700195312e-01 -2.207397222518920898e+00 1.881882697343826294e-01
-1.496228668838739395e-02 -2.440263271331787109e+00 -5.666947960853576660e-01
5.036742687225341797e-01 -2.260570526123046875e+00 2.123409211635589600e-01
4.234934747219085693e-01 -1.440787911415100098e+00 8.820015192031860352e-01
-4.076032713055610657e-02 -2.508835554122924805e+00 -3.152393102645874023e-01
1.820836514234542847e-01 -2.282501935958862305e+00 2.664075493812561035e-01
2.878205478191375732e-01 -2.463448762893676758e+00 -3.902140259742736816e-01
-7.061720490455627441e-01 -2.424280881881713867e+00 -3.485196530818939209e-01
-3.548315763473510742e-01 -2.388205528259277344e+00 5.940839648246765137e-02
-4.271072521805763245e-02 -2.437323808670043945e+00 -4.819487221539020538e-03
-1.592050045728683472e-01 -2.265996217727661133e+00 3.161906003952026367e-01
-1.182934939861297607e-01 -1.740379691123962402e+00 7.808796763420104980e-01
2.797247767448425293e-01 -2.433594465255737305e+00 -7.474736124277114868e-02
-3.258970379829406738e-01 -2.032845973968505859e+00 5.592879652976989746e-01
3.951573073863983154e-01 -2.031906843185424805e+00 5.262161493301391602e-01
1.950386881828308105e+00 1.123466610908508301e+00 -5.004836916923522949e-01
1.511079788208007812e+00 5.986056923866271973e-01 -8.704240918159484863e-01
1.682226300239562988e+00 9.589879512786865234e-01 -7.169206142425537109e-01
2.455767154693603516e+00 6.771463155746459961e-01 -1.400475203990936279e-01
1.789749860763549805e+00 1.852991700172424316e+00 4.440687894821166992e-01
2.510081291198730469e+00 6.815015673637390137e-01 2.021612673997879028e-01
2.031636953353881836e+00 3.827639222145080566e-01 -6.968079209327697754e-01
1.912428855895996094e+00 1.551605939865112305e+00 -2.601597309112548828e-01
2.212661981582641602e+00 1.349101066589355469e+00 3.894044458866119385e-01
2.411973714828491211e+00 1.012908220291137695e+00 1.423049569129943848e-01
1.866678118705749512e+00 6.789357066154479980e-01 -7.164707183837890625e-01
2.322329282760620117e+00 1.062582135200500488e+00 4.333442747592926025e-01
1.477689743041992188e+00 2.052278041839599609e+00 5.202492475509643555e-01
2.156679153442382812e+00 1.228309869766235352e+00 -2.517776191234588623e-01
2.142339706420898438e+00 8.190132379531860352e-01 -4.918232858180999756e-01
2.406960010528564453e+00 2.489787489175796509e-01 -3.898265361785888672e-01
2.333714008331298828e+00 9.557163119316101074e-01 -1.970506459474563599e-01
2.064747333526611328e+00 1.600000619888305664e+00 3.104592263698577881e-01
2.266643285751342773e+00 1.292727708816528320e+00 8.050231635570526123e-02
2.077561855316162109e+00 1.528143882751464844e+00 -9.340128861367702484e-03
1.632010579109191895e+00 2.043627262115478516e+00 2.527011930942535400e-01
1.901285409927368164e+00 1.788492918014526367e+00 1.434870064258575439e-01
1.919724345207214355e+00 1.591882228851318359e+00 5.660966038703918457e-01
1.732415795326232910e+00 1.871630787849426270e+00 -5.536198988556861877e-02
2.296416044235229492e+00 5.338752865791320801e-01 -4.491207003593444824e-01
9.328813552856445312e-01 -2.278060913085937500e+00 -2.109527289867401123e-01
9.543541669845581055e-01 -9.590818881988525391e-01 9.188222885131835938e-01
5.951402187347412109e-01 -2.381057739257812500e+00 -4.106625020503997803e-01
5.993658900260925293e-01 -1.714923977851867676e+00 7.293436527252197266e-01
1.037296056747436523e+00 -1.926769375801086426e+00 4.265201389789581299e-01
1.343109250068664551e+00 -1.867108464241027832e+00 2.972222566604614258e-01
1.096805810928344727e+00 -2.100425004959106445e+00 1.077133044600486755e-01
1.300234317779541016e+00 -2.064445972442626953e+00 -6.809841841459274292e-02
1.732262015342712402e+00 -1.205711126327514648e+00 6.241450309753417969e-01
7.820473909378051758e-01 -2.277295351028442383e+00 -5.373862385749816895e-01
1.257731795310974121e+00 -1.619094610214233398e+00 6.020023822784423828e-01
1.588470697402954102e+00 -1.801707506179809570e+00 1.325915753841400146e-01
6.349811553955078125e-01 -8.609297871589660645e-01 9.310704469680786133e-01
1.566498994827270508e+00 -1.562750816345214844e+00 4.683141708374023438e-01
7.261008024215698242e-01 -1.997287988662719727e+00 4.710118770599365234e-01
9.094737172126770020e-01 -1.658247590065002441e+00 6.962841749191284180e-01
7.379116415977478027e-01 -1.298119306564331055e+00 8.916683793067932129e-01
1.280393481254577637e+00 -1.007101535797119141e+00 8.682410120964050293e-01
1.210663080215454102e+00 -6.640918254852294922e-01 9.011194705963134766e-01
8.182787895202636719e-01 -2.200686931610107422e+00 1.456391662359237671e-01
1.559276700019836426e+00 -8.490400910377502441e-01 8.405084609985351562e-01
1.092945456504821777e+00 -1.328681588172912598e+00 8.173111677169799805e-01
1.452257752418518066e+00 -1.276333212852478027e+00 7.282368540763854980e-01
-1.628221124410629272e-01 2.259555101394653320e+00 -4.391071498394012451e-01
1.809350848197937012e-01 2.404281616210937500e+00 -3.049131035804748535e-01
-2.117573618888854980e-01 1.857418894767761230e+00 -6.825894713401794434e-01
4.123020544648170471e-02 1.653797984123229980e+00 -7.763924598693847656e-01
-4.037157595157623291e-01 2.603357076644897461e+00 3.152161464095115662e-02
4.088302552700042725e-01 2.489372014999389648e+00 5.565681457519531250e-01
-2.503896653652191162e-01 1.365645051002502441e+00 -8.690382242202758789e-01
2.421685606241226196e-01 2.609415769577026367e+00 -8.863080292940139771e-03
8.493238687515258789e-01 2.491879224777221680e+00 1.006292998790740967e-01
-3.007446825504302979e-01 2.640156030654907227e+00 3.348703980445861816e-01
-6.912351250648498535e-01 2.574859857559204102e+00 1.806245446205139160e-01
-1.152237951755523682e-01 2.546916246414184570e+00 -1.382925063371658325e-01
5.591188073158264160e-01 2.446951866149902344e+00 -1.961822807788848877e-01
5.454083681106567383e-01 2.590347051620483398e+00 1.097389236092567444e-01
1.099942177534103394e-01 2.050656795501708984e+00 -5.868402123451232910e-01
4.044986963272094727e-01 2.172472476959228516e+00 -4.758478105068206787e-01
3.123159110546112061e-01 2.634648799896240234e+00 3.236343264579772949e-01
-4.967736899852752686e-01 2.041212320327758789e+00 -5.535609126091003418e-01
-4.663906395435333252e-01 2.389141559600830078e+00 -2.870380580425262451e-01
6.700461506843566895e-01 2.545069694519042969e+00 3.871078491210937500e-01
7.899693846702575684e-01 2.365136384963989258e+00 5.752248764038085938e-01
4.852828755974769592e-02 2.585973262786865234e+00 4.815987050533294678e-01
-2.762757055461406708e-02 2.665237665176391602e+00 1.873101890087127686e-01
-7.585960030555725098e-01 2.430835247039794922e+00 -1.416656374931335449e-01
-4.817107915878295898e-01 1.642962932586669922e+00 -7.549995183944702148e-01
-1.286515831947326660e+00 1.401259064674377441e+00 -7.224374413490295410e-01
-1.024361968040466309e+00 2.398982524871826172e+00 3.824146836996078491e-02
-1.071246147155761719e+00 2.165909767150878906e+00 -3.105317354202270508e-01
-6.568201780319213867e-01 1.304031252861022949e+00 -8.541278839111328125e-01
-7.954349517822265625e-01 2.126652002334594727e+00 -4.433046281337738037e-01
-1.188201189041137695e+00 9.533516764640808105e-01 -8.692155480384826660e-01
-1.374534845352172852e+00 5.638439059257507324e-01 -8.848422169685363770e-01
-1.565318346023559570e+00 1.971446514129638672e+00 -1.816769093275070190e-01
-1.607414007186889648e+00 2.053270101547241211e+00 1.019685417413711548e-01
-1.673029661178588867e+00 6.719279885292053223e-01 -8.263766169548034668e-01
-7.896537184715270996e-01 1.723980426788330078e+00 -6.790323257446289062e-01
-8.547433018684387207e-01 9.401997923851013184e-01 -9.009297490119934082e-01
-1.034251928329467773e+00 5.834283828735351562e-01 -8.991782069206237793e-01
-1.094656944274902344e+00 1.789234995841979980e+00 -5.814282298088073730e-01
-1.390410900115966797e+00 1.824769616127014160e+00 -4.574483931064605713e-01
-1.312991738319396973e+00 2.261129379272460938e+00 1.241355240345001221e-01
-1.295859098434448242e+00 2.156011581420898438e+00 -1.657912433147430420e-01
-1.960838913917541504e+00 8.365619182586669922e-01 -6.784794926643371582e-01
-1.764883875846862793e+00 1.125304579734802246e+00 -6.668573617935180664e-01
-1.953847885131835938e+00 1.308214783668518066e+00 -4.468917548656463623e-01
-1.484689950942993164e+00 1.002085685729980469e+00 -8.061721324920654297e-01
-9.912984967231750488e-01 1.349641799926757812e+00 -7.997120618820190430e-01
-1.551340937614440918e+00 1.408847451210021973e+00 -6.258251667022705078e-01
-1.720539212226867676e+00 1.589202880859375000e+00 -4.232356548309326172e-01
7.586620450019836426e-01 -5.851626992225646973e-01 -6.794425249099731445e-01
5.968765020370483398e-01 -2.446171790361404419e-01 -6.713176369667053223e-01
7.564206123352050781e-01 -1.938084699213504791e-02 -7.913342118263244629e-01
1.688042044639587402e+00 2.812081873416900635e-01 -8.590449094772338867e-01
9.681459069252014160e-01 -1.296636104583740234e+00 -7.655586004257202148e-01
8.838919401168823242e-01 -9.443091154098510742e-01 -7.179274559020996094e-01
1.085223674774169922e+00 -6.753758192062377930e-01 -7.934251427650451660e-01
9.293577075004577637e-01 -3.359130024909973145e-01 -7.785030603408813477e-01
1.107674002647399902e+00 -7.599140703678131104e-02 -8.756297826766967773e-01
9.401106238365173340e-01 2.379657179117202759e-01 -8.978903889656066895e-01
5.647296309471130371e-01 2.623630464076995850e-01 -8.293666839599609375e-01
1.159775376319885254e+00 5.765301585197448730e-01 -9.263455867767333984e-01
1.205279946327209473e+00 -1.019770383834838867e+00 -8.193035721778869629e-01
1.425787568092346191e+00 -7.193801999092102051e-01 -8.651326298713684082e-01
1.279487133026123047e+00 -3.966283798217773438e-01 -8.670437335968017578e-01
1.481274127960205078e+00 -8.578436076641082764e-02 -9.037088751792907715e-01
2.123710393905639648e+00 -5.907752513885498047e-01 -6.590719223022460938e-01
1.549107074737548828e+00 -1.024828195571899414e+00 -8.432398438453674316e-01
1.784332871437072754e+00 -6.894966363906860352e-01 -8.304725289344787598e-01
1.644565224647521973e+00 -3.958668708801269531e-01 -8.790112733840942383e-01
1.851361989974975586e+00 -2.622216194868087769e-02 -8.305494189262390137e-01
1.997928619384765625e+00 -3.216308951377868652e-01 -7.690128087997436523e-01
2.174176454544067383e+00 8.991269022226333618e-02 -6.502335667610168457e-01
1.307854533195495605e+00 2.315450310707092285e-01 -9.213712215423583984e-01
3.456402420997619629e-01 1.675763726234436035e+00 5.707302093505859375e-01
5.132600665092468262e-01 2.234807252883911133e+00 6.523584127426147461e-01
2.866831719875335693e-01 2.015389919281005859e+00 6.402747631072998047e-01
1.123114526271820068e-01 2.349134445190429688e+00 6.438100934028625488e-01
-3.268222138285636902e-02 2.088809728622436523e+00 6.523943543434143066e-01
-2.481062859296798706e-01 2.492055892944335938e+00 5.720413327217102051e-01
-3.028245568275451660e-01 1.621069550514221191e+00 5.901436209678649902e-01
-3.049702048301696777e-01 2.264714717864990234e+00 6.631795763969421387e-01
-6.449787020683288574e-01 2.120015621185302734e+00 6.779260039329528809e-01
9.808359667658805847e-03 1.763725280761718750e+00 5.887809395790100098e-01
-3.320736289024353027e-01 1.937945127487182617e+00 6.552281975746154785e-01
-6.500201225280761719e-01 1.811432003974914551e+00 6.808055639266967773e-01
-6.432927846908569336e-01 2.381279230117797852e+00 5.923237800598144531e-01
-5.803576111793518066e-01 2.547119140625000000e+00 4.312525987625122070e-01
-9.734736680984497070e-01 2.248856782913208008e+00 5.824536085128784180e-01
3.404336795210838318e-02 1.412934541702270508e+00 4.901496171951293945e-01
-9.727751016616821289e-01 1.965394139289855957e+00 6.899824142456054688e-01
-6.363506317138671875e-01 1.516721963882446289e+00 6.397672295570373535e-01
-9.824127554893493652e-01 1.649121642112731934e+00 7.212174534797668457e-01
-1.291705369949340820e+00 2.034226894378662109e+00 5.826119780540466309e-01
-1.284107804298400879e+00 2.236846208572387695e+00 3.890430629253387451e-01
-9.630720019340515137e-01 2.440232992172241211e+00 3.650634586811065674e-01
-9.570544958114624023e-01 1.340630054473876953e+00 7.023930549621582031e-01
-2.339639425277709961e+00 -1.015848994255065918e+00 -3.215364515781402588e-01
-2.143140792846679688e+00 -1.358457803726196289e+00 -4.358348548412322998e-01
-2.088685035705566406e+00 -1.510531187057495117e+00 -2.505286931991577148e-01
-1.593863725662231445e+00 -1.999455571174621582e+00 -2.540421187877655029e-01
-1.298202037811279297e+00 -2.183614969253540039e+00 -2.124435156583786011e-01
-1.570648431777954102e+00 -1.113117218017578125e+00 7.284681797027587891e-01
-1.791648983955383301e+00 -1.340756416320800781e+00 4.745618402957916260e-01
-1.648708462715148926e+00 -1.909007549285888672e+00 -4.660106003284454346e-01
-1.337701320648193359e+00 -2.118206024169921875e+00 -4.639990925788879395e-01
-9.916891455650329590e-01 -2.310989379882812500e+00 -1.453218758106231689e-01
-2.276488780975341797e+00 -1.187309384346008301e+00 -1.236397996544837952e-01
-2.041152715682983398e+00 -1.178996801376342773e+00 3.557595610618591309e-01
-2.242406606674194336e+00 -1.022394537925720215e+00 1.912032663822174072e-01
-1.925632715225219727e+00 -1.537787199020385742e+00 1.577427685260772705e-01
-2.116693496704101562e+00 -1.399167299270629883e+00 2.643208019435405731e-02
-1.896523594856262207e+00 -1.471185564994812012e+00 -6.321049332618713379e-01
-1.891161203384399414e+00 -1.673965573310852051e+00 -4.780566692352294922e-01
-1.745809435844421387e+00 -1.810747742652893066e+00 -5.893474910408258438e-03
-1.198482513427734375e+00 -2.124608039855957031e+00 1.021733582019805908e-01
-1.661656618118286133e+00 -1.693622946739196777e+00 2.932080328464508057e-01
-1.504321098327636719e+00 -1.493775844573974609e+00 5.712461471557617188e-01
-1.377921938896179199e+00 -1.848838806152343750e+00 3.474532961845397949e-01
-1.490247964859008789e+00 -1.989830970764160156e+00 4.151659086346626282e-02
-1.900711178779602051e+00 -1.738354086875915527e+00 -2.115649282932281494e-01
