-3.13168 -3.36667 -2.70078
-2.70892 -3.44122 -2.59655
-3.45111 -5.63302 -3.6559
-3.70637 -5.05277 -3.50506
-2.80824 -4.71471 -3.13181
-3.27867 -5.14845 -3.42824
-3.44546 -3.72599 -2.9317
-2.88457 -4.27862 -2.9724
-3.69549 -4.56321 -3.32046
-3.34412 -4.22281 -3.08423
-4.5084 3.17051 -3.14526
-3.76382 2.98685 -2.80029
-4.17083 2.29318 -2.77889
-4.14345 2.82708 -2.90313
-2.25729 2.56663 -2.17202
-2.68835 1.92953 -2.12783
-3.07446 2.69959 -2.46406
-2.69457 2.36161 -2.24045
-3.38014 0.537173 -2.17386
-3.84777 1.33714 -2.45731
-3.07662 1.2542 -2.13307
-3.45728 1.01293 -2.24866
-3.43989 2.591 -2.56371
-3.11579 1.71647 -2.22938
-3.83875 1.9019 -2.55399
-3.48743 2.03995 -2.44165
-8.48439 -8.02472 3.61978
-7.95556 -8.85426 3.42722
-7.69064 -8.35192 3.85238
-8.053 -8.42034 3.64145
-6.77442 -10.3437 2.93761
-6.58479 -9.86826 3.46252
-7.38331 -9.62922 3.19989
-6.92279 -9.9581 3.20673
-5.97076 -8.78286 4.21347
-6.8549 -8.60408 4.05224
-6.31878 -9.34333 3.89807
-6.39153 -8.91873 4.06647
-7.50661 -9.21734 3.44223
-6.69556 -9.46019 3.68791
-7.24346 -8.70663 3.87038
-7.15686 -9.13814 3.67446
9.80401 8.88078 -1.40503
10.3936 8.34827 -1.07116
10.3825 8.01666 -1.69243
10.202 8.42638 -1.39429
11.4049 7.14607 -0.349883
11.4565 6.85726 -0.990816
10.932 7.76479 -0.723024
11.2768 7.26433 -0.694699
11.3561 6.0971 -2.16158
10.9031 7.08412 -1.94434
11.4389 6.50191 -1.59412
11.2433 6.56812 -1.90526
10.7672 7.86835 -1.05382
11.2917 6.94772 -1.31772
10.7542 7.52854 -1.66789
10.9472 7.45835 -1.35241
1.37758 2.39847 1.92581
0.440456 2.29505 1.7831
0.875953 1.70103 1.6657
0.845338 2.09442 1.76097
-1.40412 2.56493 1.98098
-0.942312 1.91661 1.72499
-0.414245 2.48534 1.84253
-0.924026 2.32608 1.83581
-0.0707129 0.426677 1.42847
0.362376 1.09847 1.51125
-0.601443 1.08377 1.52226
-0.149224 0.83569 1.46512
0.00774867 2.16744 1.73289
-0.553165 1.61233 1.61345
0.350436 1.43813 1.56957
-0.112885 1.70391 1.61463
1.87897 -3.21722 -2.30272
2.39902 -3.9932 -2.72826
1.46358 -3.73783 -2.43082
1.92729 -3.60151 -2.46222
2.73663 -5.72041 -3.54097
1.81856 -5.19861 -3.14555
2.59549 -4.92493 -3.1708
2.35335 -5.26794 -3.27062
0.244179 -4.95954 -2.88133
0.970033 -4.29323 -2.60851
1.0848 -4.95468 -2.93298
0.829612 -4.72366 -2.79963
2.31409 -4.44121 -2.89807
1.60401 -4.83594 -2.94307
1.47862 -4.10986 -2.5942
1.8574 -4.42155 -2.79541
4.62236 3.71745 3.3496
4.1478 4.40793 3.40692
3.85684 3.56773 3.01939
4.20589 3.91089 3.25823
3.46835 5.64326 3.66419
2.82384 4.71562 3.13587
3.71006 5.0478 3.50397
3.29631 5.15151 3.43381
2.33412 3.04556 2.34996
3.13079 3.3619 2.69873
2.55861 3.84722 2.71083
2.69854 3.43722 2.59209
3.69419 4.55854 3.3182
2.88629 4.26568 2.96759
3.44746 3.71854 2.92964
3.3429 4.21231 3.07976
-8.00129 -1.42397 4.22624
-7.41213 -0.984938 4.02067
-8.12182 -0.488062 4.23036
-7.84647 -0.977291 4.16405
-6.22898 -0.00769819 3.49208
-6.86202 0.471505 3.78382
-6.85105 -0.489807 3.77991
-6.66989 -0.00746821 3.69291
-7.9894 1.45165 4.22543
-8.13156 0.494187 4.23341
-7.43561 0.962343 4.02818
-7.8634 0.972858 4.16911
-7.2737 -0.500488 3.95114
-7.29 0.478893 3.95663
-7.93429 -0.00598291 4.17279
-7.52052 -0.0107619 4.03695
11.6754 5.61329 -2.03802
11.7542 6.01917 -1.4667
12.1658 5.14981 -1.45366
11.8779 5.60157 -1.65427
11.6962 6.67505 -0.219925
12.1279 5.85604 -0.213818
11.7658 6.37337 -0.86024
11.8775 6.30943 -0.434165
12.8224 4.1187 -0.214824
12.5541 4.63828 -0.850862
12.5055 4.99881 -0.215634
12.6433 4.58752 -0.431315
11.9164 5.98109 -1.05972
12.2905 5.46325 -0.428815
12.3164 5.11067 -1.05501
12.1906 5.52435 -0.848646
-2.92034 6.16662 -3.75039
-2.72334 6.78877 -3.95809
-1.99213 5.77743 -3.42882
-2.60836 6.27069 -3.73616
-1.72874 7.85376 -4.20137
-1.27815 6.99939 -3.87607
-2.17174 7.34011 -4.0784
-1.73115 7.42871 -4.06942
-0.357572 5.39926 -3.09975
-1.2224 5.51852 -3.21196
-1.05507 6.16319 -3.50394
-0.989732 5.71491 -3.28603
-2.21911 6.88696 -3.9282
-1.39973 6.55826 -3.70732
-1.78811 5.94296 -3.47301
-1.9001 6.53442 -3.75046
-1.71878 8.73268 -4.37613
-2.16764 9.54369 -4.39393
-1.29328 9.32008 -4.40918
-1.72848 9.20475 -4.40886
-2.97765 10.9247 -3.86924
-2.10639 10.8593 -4.01861
-2.60594 10.2786 -4.21671
-2.57339 10.6945 -4.05031
-0.438164 10.576 -4.22104
-0.887693 9.95096 -4.36525
-1.25674 10.7424 -4.13283
-0.871575 10.4403 -4.25618
-2.16172 9.99486 -4.32307
-1.70213 10.5889 -4.17072
-1.29564 9.80454 -4.37996
-1.72491 10.1404 -4.30879
3.15813 5.77559 3.64549
2.34307 5.42241 3.33094
2.40442 4.71178 3.03466
2.56667 5.28001 3.31389
0.676439 5.02034 2.92921
0.859167 4.40351 2.64835
1.58665 5.19754 3.10656
0.999687 4.83989 2.86868
1.83172 3.07424 2.2391
2.07664 3.82885 2.58591
1.24935 3.63058 2.35209
1.71417 3.44753 2.3563
1.81922 4.99274 3.04599
1.25022 4.15046 2.57598
1.98491 4.24347 2.74145
1.62331 4.38202 2.73573
-12.6373 2.39308 2.20874
-12.4165 3.33545 2.21945
-12.8215 2.85651 1.64664
-12.648 2.85003 2.01855
-11.7641 5.18648 2.21885
-12.2568 4.71262 1.65708
-12.1238 4.28068 2.21829
-12.0642 4.73195 2.03046
-12.9295 3.70484 0.430014
-12.9189 3.30047 1.05777
-12.6485 4.21153 1.06827
-12.8492 3.73875 0.856912
-12.3785 3.81047 2.04444
-12.5067 4.24179 1.46602
-12.7803 3.32238 1.46865
-12.5688 3.79092 1.66555
-8.54385 -7.574 -3.81117
-8.20209 -7.054 -4.13803
-7.74157 -7.90542 -4.02064
-8.16779 -7.52202 -3.99961
-7.30487 -5.98118 -4.4179
-6.90552 -6.81616 -4.40361
-7.77531 -6.52021 -4.34397
-7.30286 -6.45743 -4.40007
-5.99352 -8.35442 -4.31466
-6.89169 -8.16224 -4.19135
-6.47549 -7.602 -4.37385
-6.45712 -8.04767 -4.30561
-7.80442 -6.97986 -4.26426
-6.93862 -7.25902 -4.36479
-7.3365 -7.81749 -4.17635
-7.36506 -7.35995 -4.28155
-10.6492 3.7541 -3.8887
-11.3202 3.33477 -3.51561
-11.0581 4.21582 -3.48885
-11.0477 3.74488 -3.62787
-12.3869 2.41008 -2.59753
-12.2051 3.32432 -2.55462
-11.8947 2.87795 -3.08555
-12.1874 2.85458 -2.74095
-11.5254 5.17978 -2.57436
-11.3064 4.71917 -3.07022
-11.8907 4.28393 -2.57026
-11.592 4.7281 -2.73902
-11.6588 3.33335 -3.20751
-11.9332 3.80264 -2.73238
-11.3514 4.26066 -3.20975
-11.6796 3.7883 -3.04067
6.80278 -5.92003 4.39037
5.89124 -6.17803 4.31894
6.52869 -6.68892 4.41588
6.46143 -6.25189 4.38757
3.94864 -6.38715 4.02562
4.65828 -7.01076 4.29909
4.9333 -6.34961 4.19779
4.57857 -6.58852 4.19249
5.55459 -8.21263 4.38319
6.00473 -7.48527 4.40984
5.05902 -7.62124 4.40357
5.5571 -7.77794 4.41123
5.53706 -6.47566 4.3155
5.08522 -7.18917 4.37042
6.03071 -7.03238 4.41328
5.60927 -6.89298 4.38152
2.97566 -10.9229 3.87066
2.60312 -10.2779 4.21725
2.10376 -10.8598 4.01869
2.57102 -10.6937 4.05098
1.71388 -8.7333 4.37671
1.29185 -9.3228 4.40963
2.17049 -9.53621 4.39416
1.72908 -9.19983 4.40925
0.435259 -10.5773 4.22101
1.25799 -10.7385 4.13419
0.886146 -9.95363 4.36547
0.871912 -10.4379 4.25728
2.16225 -9.99222 4.32333
1.29861 -9.80249 4.38077
1.70122 -10.5873 4.17117
1.72761 -10.1355 4.30956
-2.9871 -12.9022 -1.36143
-2.12016 -12.9584 -1.66077
-2.11756 -13.1771 -1.01451
-2.40935 -13.0265 -1.34879
-0.311518 -12.8751 -2.181
-0.309951 -13.1544 -1.59385
-1.23212 -12.9478 -1.93679
-0.62094 -13.005 -1.90813
-0.309764 -13.4576 -0.327722
-1.22455 -13.3624 -0.670928
-0.305255 -13.3533 -0.972007
-0.613152 -13.4058 -0.6601
-1.52892 -13.0488 -1.6421
-0.617206 -13.2498 -1.29844
-1.52445 -13.2615 -1.00242
-1.225 -13.2014 -1.31802
5.52665 8.20572 -4.38492
6.02865 7.47927 -4.41096
5.07198 7.61458 -4.40514
5.54091 7.77571 -4.4131
6.90531 5.89186 -4.40256
5.99695 6.1606 -4.33695
6.40999 6.7277 -4.41076
6.40955 6.27634 -4.39215
4.09404 6.38756 -4.06011
4.49374 7.02106 -4.27644
5.05765 6.34227 -4.22482
4.51159 6.59979 -4.19121
5.99373 7.04701 -4.40911
5.47381 6.49241 -4.31618
5.03614 7.19858 -4.36361
5.47015 6.92745 -4.36973
4.10759 12.5866 -1.37121
4.91985 12.401 -1.03247
4.92301 12.1567 -1.69585
4.65164 12.3964 -1.37003
6.49696 11.7868 -0.347698
6.49182 11.6548 -1.03379
5.71993 12.1335 -0.692345
6.23932 11.8748 -0.69306
6.41459 11.0611 -2.33905
5.70015 11.645 -2.01782
6.47022 11.4075 -1.69802
6.20172 11.3843 -2.02067
5.45496 12.1754 -1.03193
6.23239 11.6823 -1.36881
5.45117 11.9301 -1.69403
5.71492 11.9443 -1.36767
-9.29235 -7.17387 -3.57079
-9.98148 -6.72282 -3.30319
-9.71324 -6.22662 -3.72772
-9.6693 -6.71878 -3.54104
-11.2043 -5.66371 -2.69175
-10.9925 -5.19455 -3.17563
-10.6217 -6.2132 -3.00995
-10.948 -5.69967 -2.96517
-10.3387 -4.23078 -3.96538
-10.0536 -5.25182 -3.8598
-10.6938 -4.73021 -3.60833
-10.3481 -4.7661 -3.8268
-10.3365 -6.23125 -3.26753
-10.7103 -5.21652 -3.41899
-10.0695 -5.7391 -3.68845
-10.3806 -5.73969 -3.4661
-1.83937 -3.07758 -2.2421
-1.25685 -3.62509 -2.3508
-2.08507 -3.82842 -2.58757
-1.7257 -3.44375 -2.35726
-0.660021 -5.00788 -2.92234
-1.57589 -5.20248 -3.10766
-0.839273 -4.39713 -2.64357
-0.974395 -4.83729 -2.86513
-3.15121 -5.76528 -3.63948
-2.37121 -4.7012 -3.02301
-2.33558 -5.41803 -3.32749
-2.54174 -5.2672 -3.30302
-1.24517 -4.14746 -2.57416
-1.79401 -4.98974 -3.04053
-1.96946 -4.23717 -2.73553
-1.59841 -4.37487 -2.72858
-2.83254 5.72526 -3.56269
-1.90038 5.25562 -3.18349
-2.6011 4.92777 -3.17407
-2.4288 5.30752 -3.30312
-0.30591 4.98494 -2.89508
-0.939289 4.27441 -2.59662
-1.14243 4.93606 -2.92894
-0.858097 4.71813 -2.79833
-1.85537 3.20869 -2.29372
-2.38151 3.99946 -2.72663
-1.45828 3.76193 -2.44118
-1.92997 3.62489 -2.47145
-1.61638 4.83869 -2.94466
-1.45351 4.09932 -2.58658
-2.30257 4.48286 -2.91379
-1.84627 4.44567 -2.80401
-3.27156 12.703 1.69133
-3.27239 12.3771 2.31307
-2.41708 12.7552 1.98457
-2.99243 12.6238 2.00216
-3.16043 11.4886 3.41554
-2.38006 11.9717 3.12221
-3.24376 11.9718 2.88996
-2.93656 11.8217 3.15005
-0.619269 12.6843 2.47897
-1.53242 12.7499 2.24589
-1.52553 12.3751 2.80642
-1.23014 12.6163 2.51519
-2.98404 12.2619 2.59861
-2.11481 12.2621 2.84026
-2.12459 12.6487 2.27362
-2.41159 12.4021 2.57676
8.46809 -8.03437 3.62355
7.68367 -8.34711 3.85758
7.95182 -8.85894 3.42615
8.04808 -8.41863 3.64466
5.95503 -8.79957 4.21142
6.32078 -9.3491 3.89468
6.84319 -8.60917 4.05382
6.3838 -8.9288 4.06462
6.77313 -10.351 2.93087
7.38021 -9.63473 3.19702
6.59245 -9.86595 3.4605
6.92728 -9.95824 3.20364
7.24253 -8.70311 3.87231
6.70051 -9.45812 3.68711
7.50774 -9.21607 3.4423
7.16287 -9.13176 3.67554
-11.0657 0.504217 -4.01263
-11.5901 0.93404 -3.65836
-10.9981 1.43401 -4.00574
-11.2263 0.941262 -3.90542
-12.341 1.93956 -2.77543
-11.8374 2.41434 -3.25569
-12.0218 1.43892 -3.22739
-12.0842 1.92045 -3.08899
-10.5806 3.32858 -4.00585
-10.8596 2.37899 -3.99166
-11.2669 2.85256 -3.66364
-10.9258 2.83715 -3.89305
-11.7094 1.41993 -3.5221
-11.5481 2.38754 -3.52568
-11.135 1.88152 -3.89027
-11.4826 1.87465 -3.65369
6.88505 10.7714 -2.3436
6.95997 11.1146 -1.70006
7.61804 10.48 -2.03529
7.16194 10.8017 -2.02726
7.00098 11.4949 -0.347371
7.72662 10.9659 -0.691125
6.99206 11.3623 -1.03246
7.24358 11.2905 -0.691409
8.99515 9.70177 -1.39909
8.32213 10.1234 -1.72057
8.39836 10.3638 -1.03956
8.58063 10.0755 -1.38693
7.22238 11.097 -1.36953
7.94617 10.7157 -1.03464
7.88714 10.4709 -1.71056
7.69345 10.775 -1.372
-10.3372 -4.22917 3.96651
-10.6938 -4.72781 3.60909
-10.0548 -5.25046 3.85949
-10.3474 -4.76533 3.82741
-11.2043 -5.66192 2.69286
-10.6226 -6.21218 3.00968
-10.9903 -5.19407 3.17792
-10.9464 -5.69998 2.96662
-9.29299 -7.17247 3.57102
-9.71121 -6.22699 3.72887
-9.98217 -6.72139 3.30339
-9.66743 -6.71867 3.54234
-10.7103 -5.21509 3.4196
-10.3351 -6.23186 3.26836
-10.0698 -5.73854 3.68854
-10.379 -5.74067 3.46698
-3.16287 -11.4889 -3.41475
-2.38173 -11.972 -3.12155
-3.24554 -11.9718 -2.88935
-2.93705 -11.822 -3.14956
-0.620904 -12.6842 -2.47908
-1.53389 -12.7494 -2.24647
-1.52797 -12.3743 -2.80703
-1.2321 -12.6157 -2.51589
-3.27102 -12.7039 -1.68981
-3.27046 -12.379 -2.31071
-2.41475 -12.7568 -1.98223
-2.98787 -12.6266 -1.99863
-2.11817 -12.2615 -2.84025
-2.12529 -12.6488 -2.27323
-2.98575 -12.2626 -2.59696
-2.4137 -12.4023 -2.57587
-3.37556 -0.487025 2.17047
-3.77077 -1.37698 2.42977
-3.04295 -1.20411 2.11372
-3.41951 -1.02483 2.2355
-4.59198 -3.17956 3.18023
-3.85992 -3.02902 2.84887
-4.10727 -2.27774 2.74843
-4.16213 -2.83183 2.91135
-2.36256 -2.62636 2.21947
-2.67565 -1.93545 2.12598
-3.14769 -2.81573 2.52474
-2.73777 -2.47416 2.28568
-3.7569 -1.91734 2.52279
-3.44826 -2.6381 2.57983
-3.03741 -1.71943 2.20188
-3.4001 -2.08051 2.41667
9.95815 -4.274 4.12692
9.25522 -4.7483 4.28142
9.75709 -5.21736 4.02223
9.70025 -4.72566 4.14694
7.67313 -5.59931 4.41066
8.25095 -6.07019 4.32658
8.49365 -5.201 4.37476
8.1868 -5.61207 4.37953
8.95257 -7.15001 3.78384
9.3471 -6.23038 3.92667
8.5957 -6.63043 4.12058
8.98428 -6.67165 3.95186
8.97355 -5.18585 4.29203
8.62002 -6.135 4.23072
9.37428 -5.71589 4.06562
9.03577 -5.66174 4.20094
-7.3547 5.96311 4.41074
-6.93786 6.80266 4.40637
-7.80389 6.50451 4.34514
-7.41866 6.41178 4.39848
-5.99754 8.36498 4.3126
-6.89331 8.16743 4.19008
-6.47654 7.60842 4.37171
-6.47192 8.05209 4.30292
-8.543 7.57128 3.81282
-8.20159 7.04431 4.13999
-7.74514 7.89611 4.02318
-8.18101 7.50527 4.00086
-6.9081 7.2723 4.36546
-7.35074 7.81204 4.17475
-7.77591 6.98367 4.26891
-7.36092 7.36058 4.28134
-4.52578 3.68793 -3.30322
-4.21972 4.38863 -3.42127
-3.74583 3.51299 -2.96051
-4.14283 3.87065 -3.22131
-3.36243 5.68897 -3.66354
-3.07435 4.88851 -3.27358
-3.89691 5.07968 -3.57045
-3.43194 5.23198 -3.50349
-2.28923 3.00305 -2.32334
-3.03013 3.24397 -2.6253
-2.69986 3.92262 -2.77857
-2.68218 3.34241 -2.55301
-3.86908 4.57355 -3.37485
-3.09417 4.36676 -3.06524
-3.37757 3.66152 -2.88517
-3.42393 4.2041 -3.09955
1.27915 8.39305 4.31125
0.855447 8.99479 4.39472
0.403835 8.21926 4.25043
0.836379 8.53844 4.3285
0.00623073 10.3197 4.30669
-0.446446 9.68606 4.40432
0.452739 9.67037 4.40544
0.00340858 9.90112 4.38359
-1.23956 8.39929 4.31065
-0.38735 8.21944 4.2496
-0.838853 9.01442 4.3957
-0.810053 8.54298 4.32798
0.422954 9.20067 4.40521
-0.416099 9.21594 4.40587
0.0039183 8.43623 4.29635
0.00397025 8.9613 4.38491
7.1887 5.07561 -4.36563
7.37762 4.24861 -4.31807
6.52682 4.64146 -4.19316
7.02615 4.66549 -4.30122
7.86909 2.35693 -4.25158
7.11964 2.84515 -4.08794
7.63538 3.32907 -4.27973
7.54818 2.84912 -4.21234
5.48661 3.60709 -3.64691
5.98183 4.14989 -3.94715
6.32857 3.27427 -3.88636
5.93987 3.69009 -3.83187
7.27499 3.79676 -4.24929
6.76723 3.30626 -4.04092
6.43867 4.20574 -4.0956
6.83538 3.77792 -4.13488
0.0747304 -0.420576 1.42793
-0.362101 -1.09686 1.51094
0.593657 -1.07803 1.52044
0.152731 -0.838794 1.46537
-1.36654 -2.40255 1.92468
-0.4505 -2.29533 1.78383
-0.866964 -1.69068 1.662
-0.839398 -2.09722 1.7609
1.38034 -2.56548 1.97683
0.936065 -1.90893 1.72192
0.412078 -2.49527 1.84575
0.918732 -2.33907 1.83867
-0.355692 -1.43723 1.56961
-0.005107 -2.16626 1.73259
0.551784 -1.61358 1.61368
0.117266 -1.71471 1.61727
-6.77316 -10.344 -2.93811
-7.38299 -9.62831 -3.20086
-6.58504 -9.86783 -3.46277
-6.92104 -9.95815 -3.20778
-8.4825 -8.02543 -3.62043
-7.68802 -8.35185 -3.85348
-7.95723 -8.8526 -3.42732
-8.0529 -8.41987 -3.64172
-5.96703 -8.78378 -4.21384
-6.32088 -9.34238 -3.89785
-6.85164 -8.60357 -4.05337
-6.39058 -8.91835 -4.0668
-7.50797 -9.21565 -3.44263
-7.24291 -8.70525 -3.8712
-6.69755 -9.45867 -3.68797
-7.15853 -9.13633 -3.67475
-5.02087 8.88599 -4.33056
-4.51399 9.53232 -4.23746
-4.06279 8.89997 -4.3961
-4.54022 9.11142 -4.33646
-3.45616 10.7502 -3.88859
-3.07389 10.1157 -4.2275
-3.99281 10.1652 -4.08851
-3.51985 10.3571 -4.08045
-2.16694 8.64086 -4.37721
-3.11084 8.84663 -4.41091
-2.6359 9.41654 -4.39468
-2.64488 8.98577 -4.41069
-4.03263 9.74838 -4.23681
-3.09793 9.7049 -4.33461
-3.58764 9.10193 -4.39615
-3.58371 9.52943 -4.33586
6.12141 -10.9995 2.64329
5.34297 -11.1564 2.93154
5.41753 -11.5862 2.33325
5.63677 -11.2565 2.6419
3.69095 -11.3149 3.42833
3.78872 -11.8026 2.89977
4.53086 -11.2734 3.18318
4.01208 -11.4788 3.1725
3.82789 -12.5463 1.69228
4.64778 -12.1086 2.00892
3.83108 -12.2127 2.31823
4.10731 -12.3028 2.00815
4.84004 -11.3959 2.91743
4.08786 -11.9282 2.61356
4.90409 -11.8172 2.326
4.6204 -11.727 2.62055
5.99588 -8.36465 -4.31282
6.47355 -7.60942 -4.372
6.89249 -8.16773 -4.1901
6.46901 -8.05277 -4.30318
7.35294 -5.96435 -4.41074
7.80403 -6.50552 -4.34493
6.93806 -6.80303 -4.4063
7.41783 -6.41258 -4.39844
8.54279 -7.57183 -3.81266
7.74425 -7.89758 -4.02292
8.1992 -7.04682 -4.14016
8.17876 -7.50735 -4.00095
6.90749 -7.27265 -4.3656
7.77516 -6.98532 -4.26881
7.34792 -7.81372 -4.17494
7.35839 -7.36199 -4.28162
9.85224 -3.78773 -4.23907
9.14238 -4.281 -4.35744
9.40554 -3.25846 -4.37974
9.48217 -3.77173 -4.33492
7.55434 -5.16194 -4.40659
7.89609 -4.24396 -4.39017
8.37579 -4.75157 -4.41159
7.95283 -4.72475 -4.41239
8.25309 -2.38482 -4.3345
8.85658 -2.80491 -4.41281
8.12281 -3.31405 -4.36397
8.40939 -2.84352 -4.37856
8.74457 -4.26817 -4.40484
8.24882 -3.77588 -4.4008
8.99552 -3.27283 -4.41369
8.67434 -3.77327 -4.41627
-7.71347 -5.08145 -4.40769
-8.50943 -4.66931 -4.40236
-7.84463 -4.24925 -4.38404
-8.01519 -4.67601 -4.40957
-9.96121 -3.70447 -4.21087
-9.35416 -3.3116 -4.38333
-9.25911 -4.21755 -4.3378
-9.51983 -3.75986 -4.32428
-8.28484 -2.34906 -4.33882
-8.06199 -3.33145 -4.35793
-8.80653 -2.83812 -4.41279
-8.39269 -2.84111 -4.3781
-8.78922 -4.24037 -4.3981
-8.92619 -3.32629 -4.41388
-8.17163 -3.79955 -4.39386
-8.62198 -3.79737 -4.41513
-11.0684 0.507342 4.011
-10.9972 1.43371 4.00618
-11.5929 0.93284 3.65612
-11.2268 0.938938 3.90502
-10.579 3.32991 4.00621
-11.2683 2.84894 3.66322
-10.856 2.38321 3.99311
-10.9239 2.837 3.89407
-12.3435 1.93965 2.77204
-12.0211 1.44514 3.22726
-11.8367 2.41387 3.25643
-12.0827 1.92229 3.09011
-11.1339 1.87918 3.89132
-11.5456 2.38829 3.52761
-11.7086 1.42076 3.52264
-11.4791 1.87233 3.65667
7.24978 11.3572 -0.000305111
7.96838 10.8463 0.348295
7.96831 10.8466 -0.346397
7.73407 11.0335 0.000384403
9.24245 9.61184 1.05625
9.29368 9.73396 0.352524
8.63947 10.2601 0.697663
9.06875 9.88222 0.701515
9.24206 9.61191 -1.0571
8.63995 10.2599 -0.696916
9.29419 9.73337 -0.352968
9.06914 9.88166 -0.702298
8.42884 10.4928 0.348987
9.09123 9.94494 -0.000112234
8.42945 10.4925 -0.347272
8.65567 10.3258 0.00020207
3.38498 -0.539802 2.17591
3.08787 -1.25902 2.13795
3.85997 -1.3305 2.46171
3.46871 -1.00929 2.25286
2.2669 -2.56616 2.17448
3.08557 -2.69733 2.46723
2.69903 -1.93301 2.13218
2.70522 -2.35541 2.24221
4.50426 -3.18041 3.14649
4.17666 -2.29919 2.78286
3.76434 -2.99649 2.80352
4.14395 -2.83712 2.90622
3.132 -1.71742 2.23558
3.44991 -2.59574 2.56894
3.84967 -1.90105 2.55855
3.50254 -2.03823 2.44732
-7.81874 2.40603 4.24188
-7.06415 2.88536 4.07462
-7.66433 3.32633 4.2837
-7.51604 2.87826 4.20581
-5.39322 3.61255 3.61171
-6.01339 4.12518 3.9495
-6.25982 3.31101 3.86738
-5.89007 3.69915 3.8148
-7.10216 5.11037 4.36122
-7.45806 4.21974 4.33062
-6.60989 4.60059 4.20772
-7.06347 4.6498 4.3076
-6.73087 3.33202 4.03225
-6.5229 4.16911 4.11048
-7.3522 3.7655 4.26092
-6.87063 3.76409 4.14066
11.1299 6.14756 2.45511
10.6823 7.13001 2.24327
10.5445 6.69403 2.77901
10.7964 6.66514 2.49688
9.58917 8.93212 1.72118
9.52997 8.54569 2.31637
10.1647 8.06379 1.99924
9.76907 8.52529 2.01712
9.22045 7.64156 3.35994
9.90831 7.19322 3.08027
9.41195 8.10915 2.86505
9.52377 7.65754 3.10717
10.315 7.6223 2.27395
9.68106 8.10823 2.58671
10.1859 7.18294 2.81362
10.0705 7.64635 2.56216
-5.49016 -9.05651 4.22404
-5.84477 -9.62499 3.90981
-4.95473 -9.72382 4.09366
-5.43692 -9.47404 4.08878
-6.30356 -10.6393 2.93592
-5.51022 -10.8048 3.20519
-6.11666 -10.1569 3.46922
-5.9838 -10.5423 3.21174
-3.84434 -10.9439 3.67908
-4.41127 -10.3563 3.91129
-4.69286 -10.9069 3.45314
-4.32487 -10.7428 3.69294
-5.75342 -10.0305 3.70635
-5.1701 -10.6761 3.46315
-4.8896 -10.1314 3.91518
-5.28044 -10.2871 3.70683
-6.80581 5.9164 4.38994
-5.89412 6.17545 4.31851
-6.54139 6.68366 4.4163
-6.4733 6.24607 4.38762
-3.95037 6.38983 4.02655
-4.68361 7.00941 4.30234
-4.93263 6.34432 4.19571
-4.59718 6.58155 4.19306
-5.55642 8.21531 4.38271
-6.00074 7.48464 4.40993
-5.05758 7.62502 4.40378
-5.555 7.77864 4.41125
-5.55158 6.47068 4.31615
-5.09269 7.18866 4.37142
-6.03583 7.02952 4.41362
-5.62521 6.88716 4.38258
-3.53532 -6.5511 4.00859
-4.05242 -7.22772 4.26431
-3.07985 -7.11039 4.10892
-3.50486 -6.96629 4.12522
-5.05195 -8.46353 4.38943
-4.07908 -8.49084 4.41298
-4.56535 -7.85874 4.40046
-4.55865 -8.27541 4.4129
-2.16914 -8.18548 4.30407
-2.63047 -7.66112 4.21704
-3.11252 -8.41208 4.38631
-2.62122 -8.09304 4.31227
-4.08791 -7.64642 4.34644
-3.58226 -8.25476 4.3895
-3.1239 -7.55241 4.23697
-3.5844 -7.82701 4.33539
-6.40833 11.0671 -2.33576
-6.47172 11.4067 -1.6978
-5.69477 11.6476 -2.01788
-6.19984 11.386 -2.01942
-6.49655 11.7871 -0.347432
-5.71912 12.1341 -0.691251
-6.49093 11.6557 -1.0324
-6.23884 11.8756 -0.690161
-4.10251 12.5903 -1.36567
-4.91885 12.1576 -1.6974
-4.92341 12.3981 -1.03731
-4.65219 12.3967 -1.36889
-6.23275 11.6829 -1.36658
-5.45616 12.1736 -1.03615
-5.4516 11.9277 -1.69892
-5.7177 11.9423 -1.36924
-6.90968 -5.88956 4.40286
-6.40707 -6.72667 4.41063
-6.00059 -6.15843 4.33726
-6.40976 -6.27534 4.3922
-5.52838 -8.20625 4.38481
-5.07218 -7.61661 4.40527
-6.02835 -7.47809 4.41101
-5.54192 -7.776 4.41308
-4.10634 -6.38891 4.06309
-5.06414 -6.34089 4.22582
-4.49174 -7.02418 4.27678
-4.51519 -6.60056 4.19218
-5.99127 -7.046 4.40899
-5.03406 -7.20074 4.36371
-5.47334 -6.49181 4.3162
-5.46671 -6.92805 4.36951
-5.05697 8.46385 4.38959
-4.5817 7.85578 4.3992
-4.07264 8.47027 4.41386
-4.57967 8.25794 4.41355
-3.58762 6.55007 4.01025
-3.12051 7.08267 4.11133
-4.13422 7.19585 4.27064
-3.68504 6.92823 4.14506
-2.19145 8.23008 4.31726
-3.15397 8.3997 4.38707
-2.66971 7.69339 4.22911
-2.69831 8.11826 4.32515
-4.06742 7.60586 4.33515
-3.11813 7.51259 4.22667
-3.6231 8.23041 4.38927
-3.61586 7.76816 4.32491
-6.49684 -11.7869 0.347557
-5.72013 -12.1332 0.692996
-6.49214 -11.6546 1.03374
-6.23941 -11.8747 0.693387
-4.10758 -12.5868 1.37059
-4.92314 -12.1567 1.69557
-4.91983 -12.401 1.03216
-4.65157 -12.3967 1.36917
-6.41414 -11.0614 2.339
-6.47 -11.4076 1.69795
-5.69984 -11.6447 2.01848
-6.20095 -11.3844 2.02108
-5.45518 -12.1751 1.03238
-5.4512 -11.9299 1.69437
-6.23266 -11.682 1.36916
-5.71498 -11.944 1.36819
6.49626 -11.7873 -0.347126
5.71877 -12.1337 -0.694102
6.49027 -11.6562 -1.03221
6.23838 -11.8751 -0.69401
4.10217 -12.5895 -1.36817
4.91886 -12.1593 -1.69387
4.9238 -12.3989 -1.03402
4.65231 -12.3966 -1.36911
6.40881 -11.0672 -2.33542
6.47254 -11.4063 -1.69781
5.69491 -11.6458 -2.02103
6.20075 -11.3832 -2.02349
5.4561 -12.1741 -1.0342
5.45214 -11.9283 -1.69725
6.23246 -11.6815 -1.37077
5.7179 -11.9409 -1.37266
7.34507 -5.96851 4.41112
6.9344 -6.80517 4.40619
7.80165 -6.50554 4.34522
7.40944 -6.41662 4.39862
5.99527 -8.36491 4.31298
6.89162 -8.16856 4.19026
6.47942 -7.60858 4.37144
6.47247 -8.05353 4.30262
8.5412 -7.57126 3.8138
8.20409 -7.04223 4.13979
7.74377 -7.89629 4.0237
8.1813 -7.5047 4.00103
6.91111 -7.27195 4.36519
7.35106 -7.81168 4.17486
7.7791 -6.98215 4.26857
7.3636 -7.36002 4.28097
-11.7681 -5.18118 -2.21626
-12.2589 -4.71165 -1.65323
-12.1288 -4.27434 -2.21362
-12.0654 -4.73027 -2.02936
-12.9322 -3.69512 -0.432794
-12.9199 -3.29249 -1.06235
-12.651 -4.21189 -1.05874
-12.851 -3.73568 -0.85377
-12.6262 -2.39252 -2.22985
-12.4089 -3.34693 -2.22675
-12.8102 -2.86263 -1.67
-12.6209 -2.87988 -2.05647
-12.5081 -4.24382 -1.46031
-12.7841 -3.31777 -1.4631
-12.3864 -3.80479 -2.03327
-12.5723 -3.79289 -1.65609
8.46614 1.40621 -4.33041
9.1865 0.948004 -4.40888
8.54481 0.481657 -4.32749
8.73521 0.95059 -4.36548
10.4891 -0.017216 -4.2566
9.83103 -0.453854 -4.39195
9.85549 0.485045 -4.38833
10.0614 0.0139166 -4.35972
8.43485 -1.45074 -4.32691
8.54982 -0.496664 -4.32875
9.15859 -0.958825 -4.40852
8.72441 -0.976847 -4.36543
9.41686 0.490334 -4.41402
9.40476 -0.467378 -4.41498
8.77574 -0.00558097 -4.3653
9.1965 0.00568293 -4.40843
-3.20348 -6.26123 -3.84855
-2.37603 -5.98536 -3.59032
-2.55357 -6.76288 -3.92078
-2.63445 -6.33047 -3.77492
-0.62989 -5.43228 -3.1289
-0.815992 -6.11797 -3.46443
-1.55267 -5.62803 -3.30795
-0.921051 -5.68724 -3.27198
-1.68819 -7.8305 -4.19114
-2.19098 -7.32721 -4.07763
-1.30218 -7.00936 -3.88406
-1.70264 -7.39729 -4.05817
-1.81124 -5.98262 -3.50365
-1.30661 -6.50413 -3.67099
-2.15414 -6.86313 -3.90676
-1.67024 -6.42798 -3.67423
-10.3672 4.22201 -3.94905
-10.7174 4.70694 -3.59937
-10.0729 5.24653 -3.85222
-10.4251 4.70391 -3.79874
-11.2023 5.66511 -2.69323
-10.6171 6.21977 -3.01078
-10.9898 5.20161 -3.17493
-10.9523 5.69587 -2.96261
-9.28471 7.18474 -3.57065
-9.70716 6.23844 -3.72653
-9.97955 6.72246 -3.30498
-9.67508 6.71606 -3.53863
-10.6941 5.23422 -3.42498
-10.3405 6.22951 -3.26499
-10.0511 5.75355 -3.69475
-10.38 5.73822 -3.46687
8.9474 7.14734 -3.78758
9.37336 6.20667 -3.92244
8.6157 6.63052 -4.11445
8.98386 6.67292 -3.95261
10.0307 4.20322 -4.11432
9.32634 4.71426 -4.27264
9.67518 5.26502 -4.04561
9.66145 4.75257 -4.16148
7.76566 5.55039 -4.41602
8.1503 6.12178 -4.3344
8.57121 5.1576 -4.37368
8.14138 5.62679 -4.38898
9.35149 5.73314 -4.06861
8.92642 5.22146 -4.30342
8.59155 6.15901 -4.23093
8.93784 5.72788 -4.21526
8.54498 7.57352 -3.81072
8.20062 7.05374 -4.13865
7.74406 7.90498 -4.01978
8.16637 7.52231 -3.99994
7.3025 5.98315 -4.41768
6.91078 6.81568 -4.40341
7.7796 6.51783 -4.34366
7.30752 6.45561 -4.39991
5.99589 8.35432 -4.31419
6.89532 8.16358 -4.18997
6.47539 7.6047 -4.37366
6.4569 8.04974 -4.30508
7.80577 6.97828 -4.26439
6.94126 7.26042 -4.36446
7.33673 7.81891 -4.17578
7.36417 7.36079 -4.28169
-2.94519 -0.192618 -1.99046
-2.13663 -0.189008 -1.72686
-2.64438 -0.916786 -1.93492
-2.59108 -0.438057 -1.87638
-0.436429 -0.324576 -1.43544
-0.943044 -0.957373 -1.54137
-1.36759 -0.315905 -1.55018
-0.936926 -0.587831 -1.50147
-1.88548 -2.30759 -2.0019
-2.30625 -1.70491 -1.95964
-1.3969 -1.62972 -1.72748
-1.87101 -1.91995 -1.89515
-1.80128 -0.470763 -1.65205
-1.44349 -1.21771 -1.65862
-2.25972 -1.2 -1.85394
-1.87107 -1.00302 -1.72058
-3.1615 11.49 -3.41404
-3.24328 11.9734 -2.88829
-2.3797 11.971 -3.12313
-2.93632 11.8229 -3.14885
-3.27165 12.7038 -1.68943
-2.41703 12.7547 -1.98543
-3.2723 12.3783 -2.31119
-2.99226 12.6246 -2.00066
-0.619505 12.6859 -2.47663
-1.5254 12.3748 -2.80678
-1.53235 12.7498 -2.24611
-1.23022 12.6188 -2.51145
-2.98376 12.2629 -2.59732
-2.12462 12.6472 -2.2762
-2.11422 12.2603 -2.84281
-2.41131 12.4017 -2.57756
3.69364 11.3103 -3.4316
3.78906 11.8006 -2.90197
4.52916 11.2677 -3.18933
4.01227 11.4701 -3.18108
3.83278 12.5435 -1.69548
4.65158 12.1035 -2.01588
3.82566 12.2146 -2.31786
4.10539 12.3002 -2.01433
6.12735 10.9967 -2.64288
5.33875 11.1681 -2.92074
5.42259 11.5879 -2.32734
5.63693 11.2628 -2.63402
4.08371 11.925 -2.61974
4.90218 11.8198 -2.32358
4.83629 11.4003 -2.91438
4.61406 11.7269 -2.6239
3.82521 12.7806 1.03455
4.64866 12.583 0.692796
3.82042 12.9053 0.34832
4.09825 12.7728 0.692094
6.2414 11.9413 -0.000707444
5.45534 12.304 -0.345689
5.4553 12.3037 0.349363
5.71918 12.1999 0.000588017
3.82555 12.7807 -1.03375
3.82039 12.9055 -0.347316
4.64864 12.5829 -0.694112
4.09839 12.7725 -0.694215
4.91936 12.5274 0.349319
4.91917 12.5278 -0.346915
4.09854 12.8354 -0.000980227
4.64706 12.6473 -0.00068265
7.98922 -1.45176 4.22548
8.13016 -0.492351 4.23299
7.43645 -0.960931 4.02847
7.86294 -0.971514 4.16898
8.00442 1.42298 4.22721
7.41308 0.985318 4.02095
8.12207 0.487427 4.23032
7.8498 0.97496 4.16491
6.22877 0.00559379 3.49205
6.86145 -0.47086 3.78359
6.84838 0.492654 3.77889
6.66786 0.00708733 3.6921
7.93244 0.00714692 4.17221
7.27074 0.503621 3.95011
7.28906 -0.475931 3.95623
7.51783 0.0129833 4.03596
5.55167 -8.2147 -4.38302
5.05609 -7.62325 -4.40371
6.00006 -7.48527 -4.41004
5.55131 -7.77867 -4.41142
3.9481 -6.38833 -4.02581
4.93148 -6.34623 -4.19602
4.6779 -7.00834 -4.30129
4.59202 -6.58209 -4.19244
6.80409 -5.91733 -4.38987
6.54019 -6.68445 -4.41625
5.89253 -6.17657 -4.31852
6.47111 -6.24697 -4.38752
5.09188 -7.18835 -4.37121
5.54866 -6.47255 -4.31614
6.03613 -7.02992 -4.41359
5.62318 -6.88842 -4.38248
2.97445 -10.9245 -3.86984
2.09993 -10.8637 -4.01706
2.59788 -10.2825 -4.21639
2.56621 -10.6957 -4.05067
0.431518 -10.5793 -4.22091
0.883846 -9.95962 -4.36572
1.26242 -10.7341 -4.13529
0.872012 -10.4324 -4.25961
1.71006 -8.73866 -4.37848
2.17642 -9.52842 -4.39396
1.28969 -9.32738 -4.41022
1.72871 -9.19226 -4.4098
1.69971 -10.5885 -4.17015
1.3055 -9.80148 -4.38175
2.16285 -9.99063 -4.32313
1.73096 -10.1286 -4.3105
-7.18886 -5.07297 -4.36494
-7.37428 -4.24841 -4.3176
-6.52027 -4.64191 -4.19171
-7.02023 -4.66669 -4.30038
-7.86567 -2.3645 -4.25122
-7.10958 -2.85216 -4.0855
-7.63194 -3.32913 -4.27888
-7.54346 -2.85422 -4.21146
-5.47417 -3.60106 -3.64064
-5.9737 -4.14826 -3.94396
-6.31827 -3.27956 -3.88353
-5.93179 -3.68822 -3.82836
-7.27122 -3.79639 -4.24838
-6.75707 -3.31237 -4.03858
-6.43334 -4.20893 -4.09459
-6.83024 -3.78169 -4.13403
11.2025 -5.6634 2.6941
10.9886 -5.2009 3.17647
10.6182 -6.21954 3.00991
10.9529 -5.69513 2.96243
10.3701 -4.21902 3.94806
10.0734 -5.24787 3.85159
10.717 -4.70508 3.60029
10.4285 -4.7012 3.79743
9.28487 -7.18527 3.57026
9.97987 -6.72161 3.30518
9.70558 -6.23951 3.72704
9.67506 -6.71605 3.53865
10.6924 -5.23577 3.42572
10.049 -5.75553 3.69534
10.3409 -6.2291 3.26485
10.3796 -5.73956 3.46662
5.57151 -0.304929 3.18192
4.94364 -0.314903 2.87645
5.4671 -1.2344 3.19334
5.33746 -0.625877 3.08129
3.70613 -0.247509 2.29714
4.17585 -1.15331 2.57766
4.34727 -0.281407 2.591
4.10574 -0.539805 2.49004
4.89158 -2.96198 3.24683
5.2295 -2.1414 3.21517
4.53025 -2.10117 2.89339
4.88486 -2.42067 3.11709
4.71753 -0.627373 2.78206
4.51913 -1.52584 2.78503
5.17503 -1.55435 3.09491
4.81928 -1.25829 2.88847
6.68433 -5.49647 4.34538
6.18502 -4.98266 4.17512
5.76226 -5.77065 4.23481
6.214 -5.42094 4.25844
4.98889 -3.92619 3.54585
4.72146 -4.64548 3.66983
5.63601 -4.4678 3.91011
5.10833 -4.35795 3.71024
3.80328 -5.9695 3.86514
4.80243 -5.94426 4.07746
4.31061 -5.34282 3.7769
4.30235 -5.76553 3.91169
5.71566 -4.8967 4.03805
4.79308 -5.08589 3.82925
5.27722 -5.66293 4.11103
5.2596 -5.22726 3.9976
8.99433 -9.70175 1.40066
8.32193 -10.1223 1.72279
8.39815 -10.3633 1.04133
8.58079 -10.0742 1.38917
6.88374 -10.7751 2.33981
6.95974 -11.1161 1.69724
7.61768 -10.4803 2.0352
7.16347 -10.8013 2.02611
7.00055 -11.4953 0.346258
7.72702 -10.9657 0.690876
6.99227 -11.3628 1.03038
7.24434 -11.2902 0.690183
7.88602 -10.4715 1.71113
7.22169 -11.0984 1.36725
7.94703 -10.7146 1.03586
7.69376 -10.7747 1.37204
-6.23304 -0.00287298 -3.4942
-6.84946 -0.49366 -3.77945
-6.86162 0.474745 -3.78381
-6.66803 -0.00391363 -3.69233
-8.00406 -1.42622 -4.22739
-8.12102 -0.487821 -4.22999
-7.4146 -0.986499 -4.02162
-7.84942 -0.975263 -4.16489
-7.9913 1.45097 -4.22603
-7.4381 0.961981 -4.02918
-8.13033 0.490206 -4.23298
-7.86346 0.970904 -4.16918
-7.2702 -0.503857 -3.94997
-7.93211 -0.00757278 -4.17203
-7.28898 0.476482 -3.95623
-7.51612 -0.012373 -4.03528
12.3414 -1.94015 2.77476
12.0219 -1.44177 3.22691
11.8361 -2.41529 3.25678
12.0833 -1.92135 3.08974
11.0671 -0.506481 4.01174
10.9987 -1.43403 4.00534
11.5924 -0.932283 3.65662
11.2276 -0.939476 3.90461
10.5784 -3.33001 4.00666
11.2664 -2.85094 3.66426
10.8579 -2.381 3.99235
10.9242 -2.83678 3.89401
11.7098 -1.42012 3.52171
11.1352 -1.87959 3.89037
11.5464 -2.38845 3.52696
11.4815 -1.87287 3.65472
11.7691 5.18063 -2.21492
12.2595 4.71226 -1.65133
12.1283 4.27574 -2.21374
12.0653 4.73137 -2.02885
12.9328 3.69354 -0.429688
12.9193 3.29542 -1.0614
12.6513 4.21069 -1.05932
12.851 3.73477 -0.854637
12.6269 2.3941 -2.22805
12.4086 3.34553 -2.22794
12.8105 2.8644 -1.66806
12.6204 2.87966 -2.05738
12.5073 4.24554 -1.46115
12.7835 3.31918 -1.46354
12.3863 3.80447 -2.03369
12.5711 3.79337 -1.6586
3.82529 -12.7811 1.03299
3.8211 -12.9052 0.347513
4.65044 -12.5827 0.690985
4.102 -12.7719 0.690795
3.82556 -12.7806 -1.03447
4.65037 -12.5821 -0.694366
3.82129 -12.905 -0.348826
4.10228 -12.7709 -0.695761
6.24088 -11.9415 -0.000640743
5.45624 -12.3031 0.350098
5.45587 -12.3037 -0.346165
5.7201 -12.1993 0.00041231
4.09731 -12.8358 -0.00242596
4.91977 -12.5274 -0.346609
4.91993 -12.5272 0.348526
4.64769 -12.6471 -0.00160369
-6.41511 -11.0617 -2.33767
-5.70006 -11.6444 -2.01881
-6.46981 -11.4084 -1.69666
-6.20097 -11.3854 -2.0194
-4.10739 -12.5873 -1.36953
-4.91962 -12.4003 -1.03508
-4.92331 -12.1554 -1.69826
-4.65147 -12.3968 -1.36918
-6.49684 -11.7871 -0.346116
-6.49215 -11.655 -1.03227
-5.72003 -12.1333 -0.693171
-6.23946 -11.8751 -0.691257
-5.45132 -11.9286 -1.69717
-5.45514 -12.1743 -1.03528
-6.23259 -11.6829 -1.36719
-5.71501 -11.944 -1.36829
-9.80405 -8.88124 -1.40413
-10.3934 -8.34854 -1.07101
-10.3814 -8.0177 -1.69297
-10.2007 -8.42796 -1.39413
-11.4043 -7.14719 -0.348956
-11.4559 -6.8583 -0.990781
-10.9321 -7.76469 -0.72294
-11.2758 -7.2659 -0.694574
-11.3566 -6.0972 -2.16082
-10.9042 -7.08314 -1.94342
-11.4399 -6.50149 -1.59266
-11.2446 -6.5675 -1.90361
-10.7664 -7.869 -1.05463
-11.2919 -6.94784 -1.31725
-10.7538 -7.52904 -1.66795
-10.9461 -7.45975 -1.35273
-3.84588 -10.9456 -3.6774
-4.69344 -10.9047 -3.45463
-4.40773 -10.3548 -3.913
-4.3233 -10.7436 -3.69271
-6.30462 -10.6396 -2.93487
-6.11578 -10.1571 -3.4695
-5.51189 -10.8034 -3.20567
-5.98325 -10.543 -3.21128
-5.48929 -9.05771 -4.22373
-4.95566 -9.72328 -4.09369
-5.84691 -9.62516 -3.90907
-5.43887 -9.47507 -4.08791
-5.1685 -10.6732 -3.46599
-5.75433 -10.0307 -3.70593
-4.88778 -10.1292 -3.91694
-5.2784 -10.2865 -3.70802
-11.3551 6.10073 -2.16021
-11.4401 6.50222 -1.59122
-10.9038 7.08416 -1.94308
-11.2459 6.56712 -1.90167
-11.4051 7.1461 -0.347789
-10.9329 7.76365 -0.722673
-11.4579 6.8561 -0.988449
-11.278 7.26308 -0.692941
-9.80434 8.88118 -1.40367
-10.3832 8.01643 -1.69134
-10.394 8.34816 -1.07033
-10.2029 8.42634 -1.39232
-11.2923 6.94773 -1.3164
-10.7686 7.86673 -1.05312
-10.7538 7.52932 -1.66757
-10.9481 7.45779 -1.35134
6.30527 -10.6392 2.93487
6.12384 -10.1533 3.46876
5.51314 -10.794 3.21395
5.99081 -10.5338 3.2159
5.47788 -9.06502 4.22333
4.9427 -9.71722 4.09871
5.84112 -9.63066 3.90823
5.42699 -9.47581 4.09008
3.8456 -10.9545 3.67137
4.69138 -10.9076 3.45317
4.41121 -10.3578 3.91014
4.32725 -10.7527 3.68553
5.75224 -10.027 3.70893
4.8814 -10.1262 3.9199
5.17074 -10.6676 3.46984
5.27681 -10.2812 3.71196
0.620007 13.4598 0.000715437
1.5208 13.3733 0.339773
1.52116 13.3734 -0.338893
1.22003 13.419 0.00192373
3.2668 12.9348 1.0331
3.25794 13.0586 0.34709
2.40572 13.1981 0.684339
2.97736 13.0803 0.689411
3.26711 12.9352 -1.03134
2.40623 13.1976 -0.686529
3.25817 13.0587 -0.345138
2.97774 13.0802 -0.68962
2.10911 13.2935 0.340973
2.97384 13.1419 -3.08933e-05
2.10947 13.2932 -0.343092
2.39664 13.259 -0.00107594
-1.25099 8.39105 -4.30998
-0.849097 8.99991 -4.39534
-0.376853 8.22366 -4.25068
-0.816495 8.54294 -4.32887
-0.00145068 10.3124 -4.30898
0.456338 9.67669 -4.40514
-0.452905 9.67756 -4.40506
-7.372e-05 9.90326 -4.38394
1.27971 8.39283 -4.31155
0.409261 8.22281 -4.25097
0.851623 8.99677 -4.395
0.831702 8.54059 -4.32898
-0.416666 9.21097 -4.40594
0.421971 9.20932 -4.40577
0.00900873 8.43897 -4.29666
0.00179795 8.9693 -4.38545
-12.3895 2.40618 2.59474
-11.8969 2.87479 3.084
-12.2053 3.32206 2.55528
-12.189 2.84974 2.74038
-10.6523 3.74683 3.88812
-11.0596 4.21173 3.48896
-11.3244 3.33271 3.51258
-11.0534 3.73769 3.62535
-11.5249 5.17797 2.57604
-11.8892 4.28701 2.57085
-11.3025 4.71993 3.07383
-11.5903 4.72977 2.74021
-11.6619 3.33298 3.20454
-11.35 4.26303 3.21012
-11.9327 3.80341 2.73283
-11.6814 3.78927 3.03847
12.9318 3.69592 0.434114
12.6507 4.21222 1.05947
12.92 3.2917 1.06256
12.8505 3.73635 0.854788
11.7677 5.18193 2.21641
12.1289 4.27498 2.21311
12.2585 4.71264 1.65329
12.0649 4.73195 2.02909
12.6253 2.39326 2.23124
12.8105 2.86181 1.66969
12.4094 3.34663 2.22604
12.6203 2.88059 2.05726
12.5077 4.24412 1.46103
12.3871 3.80439 2.03225
12.7848 3.31629 1.46219
12.5723 3.79285 1.65597
-6.00054 0.461433 -3.39236
-6.59196 0.96011 -3.69017
-5.86759 1.39718 -3.39895
-6.16587 0.945757 -3.49685
-7.68594 1.92941 -4.17047
-6.94391 2.42015 -3.97546
-7.14208 1.45161 -3.95099
-7.26208 1.93897 -4.03543
-5.31571 3.16245 -3.47076
-5.62674 2.3115 -3.42343
-6.15394 2.85206 -3.74276
-5.7052 2.79412 -3.54962
-6.72329 1.45147 -3.7844
-6.50508 2.40938 -3.80871
-5.97486 1.88812 -3.50996
-6.40447 1.92806 -3.7021
0.311508 12.8734 -2.18414
0.310411 13.1532 -1.59695
1.23236 12.9499 -1.93243
0.62117 13.0063 -1.90536
0.309486 13.4573 -0.33069
1.22441 13.3631 -0.666626
0.30494 13.3526 -0.974997
0.612755 13.4063 -0.657215
2.98729 12.9021 -1.36168
2.12032 12.957 -1.66407
2.11786 13.1762 -1.01796
2.40954 13.0256 -1.3514
0.617307 13.2507 -1.29564
1.52435 13.2616 -1.00226
1.52935 13.0489 -1.64187
1.22506 13.2029 -1.31349
6.30497 -10.639 -2.93533
5.51245 -10.7939 -3.21428
6.12197 -10.1537 -3.46938
5.98852 -10.5326 -3.21812
3.84418 -10.9519 -3.6736
4.41177 -10.3597 -3.90912
4.69334 -10.9081 -3.45205
4.32622 -10.7503 -3.6875
5.47517 -9.06455 -4.2241
5.84124 -9.62919 -3.90882
4.94159 -9.71533 -4.09958
5.42279 -9.47211 -4.09236
5.1705 -10.6696 -3.46831
4.88464 -10.127 -3.91881
5.75166 -10.0245 -3.71068
5.27626 -10.2791 -3.71345
3.38061 -0.544131 -2.17447
3.86077 -1.31988 -2.45998
3.08566 -1.26829 -2.13859
3.46649 -1.01549 -2.25269
4.51198 -3.19329 -3.15328
3.79582 -2.99227 -2.81445
4.19021 -2.27754 -2.78398
4.15818 -2.84013 -2.91311
2.28588 -2.57176 -2.18129
2.70169 -1.9416 -2.13503
3.11079 -2.69815 -2.47583
2.71315 -2.35806 -2.24549
3.86125 -1.87911 -2.55859
3.48064 -2.58812 -2.57808
3.13274 -1.73113 -2.23865
3.51405 -2.03755 -2.45135
-4.98594 3.92317 -3.54392
-5.63348 4.46889 -3.90956
-4.72018 4.63965 -3.66739
-5.10345 4.3569 -3.70813
-6.69103 5.49561 -4.34628
-5.77134 5.76924 -4.2363
-6.193 4.97994 -4.17632
-6.22398 5.41898 -4.26006
-3.82176 5.9647 -3.86742
-4.32657 5.33714 -3.77902
-4.81382 5.94499 -4.08023
-4.32093 5.76517 -3.91594
-5.72009 4.89527 -4.03878
-5.28934 5.6606 -4.11327
-4.79919 5.08202 -3.82954
-5.26908 5.22566 -3.9995
-12.7837 -1.41492 2.20918
-12.8276 -0.497982 2.2535
-13.1045 -0.938726 1.63963
-12.9128 -0.958056 2.04958
-12.7554 1.46436 2.25055
-13.0793 0.973918 1.69599
-12.841 0.467407 2.2318
-12.9092 0.963597 2.05759
-13.4489 0.03637 0.434239
-13.3324 -0.463941 1.02917
-13.3112 0.475366 1.11297
-13.3798 0.0026185 0.865835
-12.9446 -0.0171307 2.05818
-13.1891 0.470329 1.49093
-13.1973 -0.486052 1.46427
-13.1225 -0.0245298 1.6789
-3.37425 -0.485221 -2.1695
-3.0377 -1.20134 -2.11134
-3.76695 -1.36717 -2.42668
-3.41345 -1.01522 -2.23185
-2.3797 -2.63209 -2.22588
-3.14966 -2.82215 -2.52742
-2.7031 -1.94215 -2.13626
-2.76209 -2.48169 -2.29576
-4.58646 -3.18199 -3.17901
-4.12535 -2.28232 -2.75709
-3.85371 -3.03011 -2.84705
-4.17343 -2.8381 -2.91782
-3.04989 -1.7218 -2.20698
-3.46432 -2.64283 -2.58712
-3.76485 -1.91352 -2.52538
-3.42354 -2.08202 -2.42619
-0.308841 12.5238 2.72872
-1.22143 12.2111 3.04865
-0.305903 12.1023 3.23008
-0.615609 12.2917 3.00717
-2.8351 11.3007 3.64066
-1.96987 11.2504 3.80745
-2.06678 11.798 3.35781
-2.29794 11.4601 3.61077
-0.276264 10.9873 4.05717
-0.290291 11.5971 3.67983
-1.1118 11.151 3.94144
-0.567546 11.2584 3.90146
-1.49743 11.9243 3.31809
-1.42025 11.3924 3.76634
-0.593263 11.8258 3.48341
-1.17897 11.7284 3.52994
-7.81831 2.40519 -4.24171
-7.66094 3.32551 -4.28286
-7.06237 2.88253 -4.0737
-7.51292 2.87713 -4.20491
-7.11863 5.10516 -4.36302
-6.61929 4.59497 -4.20867
-7.46379 4.21598 -4.33095
-7.07787 4.64355 -4.30915
-5.39142 3.61232 -3.61098
-6.25831 3.30934 -3.86666
-6.00984 4.1241 -3.94811
-5.88529 3.70127 -3.81374
-7.35027 3.76426 -4.2603
-6.52274 4.16551 -4.10969
-6.72792 3.32903 -4.03086
-6.8678 3.76238 -4.13951
-12.7988 1.9374 -2.05678
-13.1178 1.44899 -1.48785
-13.0031 2.36671 -1.4382
-12.9938 1.9073 -1.6518
-13.4553 0.476903 -0.246909
-13.3988 1.36986 -0.204672
-13.3403 0.948593 -0.89138
-13.416 0.913097 -0.45026
-13.0747 3.23002 -0.215088
-13.0834 2.81812 -0.851073
-13.2672 2.31511 -0.213691
-13.1585 2.7861 -0.428582
-13.2578 1.41475 -1.05796
-13.3229 1.85348 -0.419897
-13.1268 2.35652 -1.04835
-13.2576 1.86288 -0.832066
4.59013 3.18465 3.18113
3.85677 3.02867 2.84771
4.12462 2.28385 2.75709
4.17358 2.83903 2.91809
2.37298 2.62781 2.22265
2.69611 1.94137 2.13395
3.14393 2.82791 2.52708
2.75053 2.48547 2.29313
3.37498 0.487939 2.17032
3.76489 1.38207 2.42795
3.03958 1.20368 2.11251
3.41302 1.02728 2.23327
3.46053 2.64548 2.58631
3.04418 1.73046 2.20679
3.76247 1.92015 2.52561
3.4152 2.09214 2.42521
11.4041 -7.14744 -0.349019
10.9321 -7.76493 -0.722218
11.4578 -6.85563 -0.989454
11.2769 -7.2646 -0.693101
9.80323 -8.88218 -1.40406
10.383 -8.01683 -1.69129
10.3932 -8.34888 -1.07088
10.2018 -8.42722 -1.39312
11.3547 -6.10009 -2.16127
11.4404 -6.50091 -1.59212
10.9042 -7.08465 -1.9418
11.2451 -6.56809 -1.90209
10.7679 -7.8676 -1.05312
10.7545 -7.52911 -1.66637
11.2931 -6.94658 -1.31589
10.9481 -7.45822 -1.35044
11.2287 -7.44569 0.000227332
10.7635 -8.07458 0.37923
10.7635 -8.07472 -0.377902
10.933 -7.87264 0.00046124
9.63047 -9.21837 1.06977
9.6965 -9.33264 0.357267
10.2248 -8.67205 0.731441
9.86097 -9.08642 0.718626
9.631 -9.21807 -1.06906
10.2252 -8.67159 -0.7312
9.69699 -9.33224 -0.35654
9.86156 -9.08582 -0.718441
10.4311 -8.50035 0.370264
9.89766 -9.14171 9.84193e-05
10.4314 -8.5001 -0.369117
10.2684 -8.72379 0.000279907
-11.1247 6.1539 -2.45753
-10.6842 7.12851 -2.24196
-10.5384 6.69975 -2.78174
-10.796 6.66464 -2.49787
-9.59152 8.92986 -1.72077
-9.53039 8.54457 -2.31713
-10.1651 8.06389 -1.99838
-9.772 8.52247 -2.01645
-9.21123 7.64684 -3.36354
-9.9006 7.20109 -3.082
-9.41229 8.10868 -2.8651
-9.52265 7.65679 -3.10855
-10.3161 7.62113 -2.27349
-9.67973 8.11048 -2.58621
-10.1829 7.18812 -2.81298
-10.0723 7.64562 -2.56064
-9.17179 9.35571 1.72897
-9.11729 8.97231 2.33138
-8.50229 9.76973 2.04535
-8.93905 9.37515 2.04021
-8.80529 8.07615 3.38639
-8.2707 8.91254 3.17439
-9.00014 8.53729 2.88862
-8.70362 8.51365 3.1563
-7.06433 10.4188 2.64413
-7.8021 10.121 2.35176
-7.69011 9.69459 2.92675
-7.52863 10.0852 2.64737
-8.85471 8.9658 2.62488
-8.13776 9.3293 2.9195
-8.25107 9.76001 2.34931
-8.42526 9.35891 2.63767
10.4863 -0.0199513 4.25768
9.85696 0.487009 4.38825
9.82935 -0.456462 4.39218
10.0625 0.0123439 4.35978
8.46655 1.40501 4.33066
8.54874 0.478573 4.32806
9.18706 0.949774 4.40906
8.73861 0.948139 4.3661
8.42898 -1.45352 4.32604
9.15235 -0.958207 4.4083
8.54769 -0.495219 4.32836
8.72023 -0.976142 4.3649
9.42059 0.490911 4.41421
8.77664 -0.00457541 4.36531
9.4032 -0.46658 4.41494
9.20003 0.0061276 4.4085
10.1922 -3.31337 4.17797
10.4679 -2.37808 4.1709
9.73291 -2.77805 4.34965
10.1481 -2.81721 4.24386
10.6679 -0.509895 4.19085
10.0175 -0.936138 4.36059
10.6026 -1.44842 4.18299
10.4323 -0.957277 4.26136
8.55914 -1.90958 4.36315
9.15957 -2.32797 4.41346
9.31905 -1.41805 4.41455
9.01708 -1.89205 4.40827
10.3492 -1.89105 4.24656
9.75801 -1.4061 4.38961
9.6229 -2.31773 4.38407
9.91938 -1.86986 4.35394
-13.4557 0.477094 0.240044
-13.3409 0.945865 0.889807
-13.3987 1.37042 0.207116
-13.4162 0.913841 0.448481
-12.8019 1.93823 2.05079
-13.0041 2.36767 1.43513
-13.1188 1.44278 1.48726
-12.9952 1.90634 1.64909
-13.0742 3.23322 0.211027
-13.2666 2.31673 0.218977
-13.0824 2.82426 0.850046
-13.1574 2.79091 0.430201
-13.2582 1.40969 1.05904
-13.1265 2.35733 1.04942
-13.3221 1.85566 0.424558
-13.257 1.86291 0.835156
-8.81546 -8.0664 3.38546
-8.99826 -8.54162 2.88663
-8.27632 -8.90722 3.17434
-8.70483 -8.51498 3.15425
-9.17094 -9.35726 1.7278
-8.503 -9.76994 2.04412
-9.11655 -8.9728 2.33161
-8.93735 -9.37758 2.039
-7.06933 -10.4114 2.64877
-7.69273 -9.68948 2.92954
-7.79938 -10.1243 2.3503
-7.52713 -10.086 2.64754
-8.85401 -8.96797 2.62343
-8.24924 -9.76185 2.349
-8.13679 -9.33055 2.919
-8.42106 -9.36466 2.6357
-2.84049 -11.3031 -3.638
-1.97413 -11.2517 -3.8062
-2.06445 -11.7979 -3.35818
-2.29738 -11.462 -3.60944
-0.27821 -10.9921 -4.05491
-0.282011 -11.5978 -3.67946
-1.11387 -11.1539 -3.93994
-0.559259 -11.2619 -3.89994
-0.309862 -12.5241 -2.72826
-1.22399 -12.2108 -3.0487
-0.307893 -12.1033 -3.22911
-0.617078 -12.2921 -3.00674
-1.41872 -11.3918 -3.76693
-0.592333 -11.8262 -3.48306
-1.49691 -11.9239 -3.31854
-1.17444 -11.7281 -3.53053
-5.03983 -8.88491 4.32934
-4.5218 -9.54176 4.23365
-4.08621 -8.91443 4.39425
-4.55366 -9.12038 4.33407
-3.45258 -10.7466 3.89136
-3.07123 -10.1127 4.22886
-3.99026 -10.16 4.09124
-3.5121 -10.3492 4.08517
-2.18173 -8.63993 4.37783
-3.12042 -8.84062 4.41126
-2.63232 -9.41263 4.39524
-2.64171 -8.97602 4.41097
-4.03566 -9.75308 4.23512
-3.09234 -9.6945 4.33682
-3.5973 -9.10689 4.39571
-3.57861 -9.52416 4.337
1.39781 -2.96243 -2.11505
0.911988 -3.48689 -2.25115
0.40288 -2.86035 -1.96942
0.894532 -3.09578 -2.09489
-0.0711577 -4.7508 -2.77693
-0.377566 -4.13697 -2.49419
0.531934 -4.09835 -2.48362
0.0761753 -4.32005 -2.57034
-1.36784 -2.76178 -2.0415
-0.498507 -2.8274 -1.96074
-0.905979 -3.47491 -2.24485
-0.903305 -2.97777 -2.05071
0.488925 -3.66404 -2.28964
-0.432592 -3.73711 -2.31883
-0.0904477 -3.0733 -2.03704
-0.021859 -3.48588 -2.201
-2.9741 10.9228 3.87094
-2.59849 10.2808 4.21689
-2.0999 10.8627 4.01761
-2.56697 10.6944 4.05121
-1.70712 8.73608 4.3779
-1.28958 9.32651 4.41018
-2.17519 9.52745 4.39409
-1.72835 9.19186 4.40973
-0.431421 10.5789 4.22109
-1.26145 10.7341 4.13542
-0.884553 9.95891 4.3657
-0.872351 10.4331 4.25936
-2.16269 9.99002 4.32328
-1.30493 9.80088 4.38174
-1.69993 10.5878 4.17048
-1.73121 10.1288 4.31046
6.67826 -5.49765 -4.34467
5.75188 -5.77299 -4.23329
6.17522 -4.98834 -4.1739
6.20463 -5.42371 -4.25709
3.78019 -5.97519 -3.86229
4.29187 -5.35101 -3.77485
4.78871 -5.94352 -4.07422
4.28135 -5.76624 -3.90711
4.99045 -3.92955 -3.54765
5.62905 -4.47013 -3.9085
4.7133 -4.6537 -3.67006
5.1031 -4.36081 -3.70949
5.26524 -5.66627 -4.1091
4.78202 -5.09167 -3.82807
5.70526 -4.901 -4.03622
5.24802 -5.22965 -3.99522
-8.60077 -1.86656 -4.36846
-9.13628 -2.36312 -4.41483
-9.34937 -1.4257 -4.41482
-9.03836 -1.8836 -4.40978
-10.2391 -3.23878 -4.16667
-10.4366 -2.34962 -4.18426
-9.66961 -2.84141 -4.35685
-10.1131 -2.82398 -4.2536
-10.6864 -0.436819 -4.18614
-10.0482 -0.961443 -4.35535
-10.6077 -1.40551 -4.18446
-10.4564 -0.940564 -4.25479
-9.57138 -2.38109 -4.38944
-10.3237 -1.90227 -4.25458
-9.77785 -1.44043 -4.38694
-9.90194 -1.9163 -4.3565
-3.45027 -10.7471 -3.89141
-3.99003 -10.1614 -4.09079
-3.06866 -10.1155 -4.22846
-3.50999 -10.3518 -4.08451
-5.0365 -8.88644 -4.32927
-4.07938 -8.91307 -4.39462
-4.5214 -9.53928 -4.23445
-4.55182 -9.1198 -4.33421
-2.18253 -8.63669 -4.37771
-2.63431 -9.41474 -4.39462
-3.11869 -8.84306 -4.41086
-2.6473 -8.97567 -4.41054
-4.03582 -9.75181 -4.2355
-3.59282 -9.10878 -4.3957
-3.09257 -9.70138 -4.33558
-3.57968 -9.52804 -4.33634
0.427696 0.324019 -1.43479
0.94244 0.935827 -1.53945
1.3666 0.295286 -1.54925
0.925816 0.583197 -1.50047
1.83247 2.30336 -1.98869
2.2852 1.70596 -1.95407
1.38418 1.61288 -1.72132
1.82897 1.91774 -1.88485
2.94069 0.19947 -1.98898
2.12804 0.181168 -1.72462
2.64378 0.915614 -1.93455
2.58924 0.44867 -1.87628
1.45605 1.19797 -1.65776
2.25542 1.19816 -1.85243
1.79823 0.444975 -1.65012
1.87106 0.995025 -1.71966
-6.67671 5.49755 4.34434
-6.17214 4.98828 4.17334
-5.75019 5.7729 4.23283
-6.20027 5.42467 4.25634
-4.99148 3.93067 3.54816
-4.7194 4.65481 3.67234
-5.63479 4.46948 3.91018
-5.10974 4.36157 3.71193
-3.77257 5.97489 3.86041
-4.78379 5.94344 4.07303
-4.28346 5.35115 3.77279
-4.27054 5.76573 3.90423
-5.70655 4.9011 4.03678
-4.78121 5.09347 3.82854
-5.25881 5.66725 4.10779
-5.2433 5.23185 3.99474
5.38081 3.16071 -3.49541
6.20275 2.82274 -3.75496
5.57804 2.33304 -3.40608
5.70826 2.79218 -3.54897
7.7203 1.89601 -4.17672
7.10989 1.47104 -3.94024
6.9843 2.39141 -3.98464
7.26405 1.93446 -4.03418
5.9938 0.473175 -3.38952
5.8374 1.41658 -3.38744
6.56813 0.975402 -3.68103
6.15013 0.958087 -3.49079
6.50607 2.40098 -3.80622
6.68894 1.47127 -3.77183
5.93134 1.90689 -3.4932
6.36488 1.94427 -3.68735
1.24484 -8.39532 4.31045
0.378617 -8.22242 4.25022
0.844596 -9.00617 4.39564
0.81279 -8.54522 4.32899
-1.28102 -8.39286 4.31153
-0.852351 -8.9938 4.39477
-0.407431 -8.21997 4.25038
-0.833674 -8.53947 4.32884
-0.00288286 -10.3154 4.30816
0.449738 -9.68219 4.4047
-0.456149 -9.67455 4.40519
-0.00263906 -9.90445 4.38365
-0.00739157 -8.43642 4.29607
-0.421586 -9.20534 4.40545
0.414944 -9.21441 4.40601
-0.0028704 -8.96746 4.38522
8.81587 8.06623 3.38523
8.99896 8.54147 2.88613
8.27715 8.90639 3.17438
8.7062 8.51453 3.15353
9.17122 9.35713 1.72757
8.50323 9.76962 2.04434
9.11543 8.97362 2.33197
8.93658 9.37824 2.03911
