9.48739 9.50189 -0.709044
-5.88569 -3.23105 -3.71134
4.83329 1.89348 -2.98277
-10.8915 6.1998 2.74426
-4.38811 -12.3731 1.70296
5.73751 0.927922 3.28843
5.24621 2.73173 3.3384
12.7423 3.77558 1.26649
-5.93525 -11.3433 2.33966
-7.48301 -11.0639 -1.03348
5.72174 -5.35241 -4.14542
-7.49587 11.1979 0.348305
11.3796 -1.37376 -3.79807
-9.27526 -5.28468 4.21051
-3.04555 -10.5333 4.08739
1.74616 11.6133 3.58505
-6.75122 11.6095 -0.695515
7.35113 -10.4714 2.35315
-11.6121 -6.75821 0.661918
0.931874 -12.8382 -2.22035
13.0504 -0.460526 1.85892
-9.94092 8.10257 2.30202
-3.55596 -9.95256 -4.2481
-4.37842 12.3808 -1.6935
-0.661668 5.80358 -3.30262
-0.928733 -12.4762 -2.77356
0.880721 2.53142 -1.88076
5.73545 -5.34787 4.14763
-0.686455 5.80044 3.3025
-2.22758 -0.679068 -1.7665
-8.74694 9.76922 1.73842
-7.38341 2.42124 -4.12445
-8.34245 4.25791 -4.42558
0.92803 -13.334 -0.995813
6.89825 4.25009 -4.22546
-3.74724 -2.46377 2.63878
-0.927782 13.3362 -0.987262
9.07066 3.79678 -4.40662
-1.71116 6.21302 3.58939
2.84482 5.18066 -3.33622
4.33085 -11.6295 2.90405
10.559 2.78326 4.10861
-10.8638 -0.900434 -4.11715
-9.48665 9.50294 0.70775
-10.0869 8.93311 -0.362438
12.7735 4.17329 0.646826
-5.04703 -8.04931 4.42601
1.30414 -10.285 4.30862
8.69875 -9.38664 2.34752
12.8215 2.41363 -1.88395
2.82588 3.01502 2.47346
-0.000333156 -12.3581 -2.96765
6.47568 -10.2685 3.21422
-7.24351 10.0455 -2.93515
9.78122 3.28634 4.32125
1.82518 -13.3663 0.00296724
-3.20131 6.66374 3.99098
5.0683 4.8359 3.83662
6.52454 5.79746 4.36529
-4.54771 8.6928 -4.4089
-10.0117 -8.82127 -1.08385
-0.00145453 -9.45144 -4.42639
-5.26253 2.71536 -3.34176
4.4419 2.61343 -2.96441
-2.22658 0.776234 1.77547
-2.15692 10.4489 -4.2127
-0.578748 0.516866 -1.43982
-10.6294 -8.30702 0.000426816
-5.17375 0.00273 -2.9743
-13.0361 -3.26078 0.64866
11.643 -4.28282 -2.90906
8.69568 9.3888 2.34835
-4.47898 0.950645 -2.68382
-2.46374 6.48437 3.80774
-12.4598 2.83958 2.37742
11.414 -3.78674 -3.33043
10.6911 -5.73012 -3.22476
-4.38818 -12.3743 -1.7002
-2.62735 -11.6624 3.3989
-12.6983 -0.977813 2.44702
2.1696 9.10322 -4.42541
1.8315 -12.5308 2.55722
-8.8404 -10.0078 -1.04742
4.81039 10.5327 3.71424
-2.86272 -5.93556 3.65575
-12.0664 5.5771 1.25706
-5.65265 10.4172 3.49258
11.855 -4.74694 -2.39248
2.49278 -0.0230399 -1.81818
-2.64408 -8.54755 4.39625
-13.3589 -1.42201 0.669276
7.54606 1.45663 4.09606
6.7507 -11.6107 -0.69121
-3.56078 9.96048 -4.24505
-4.8126 10.5305 -3.71503
-5.2487 4.79628 3.87989
-6.26868 -1.46711 3.58649
5.52773 4.08254 -3.78012
6.43949 0.476726 3.59525
-7.99301 9.74083 -2.6497
1.89238 1.5385 -1.80083
8.58295 -3.29237 -4.41842
8.30186 -0.988202 -4.29173
3.20222 -6.68153 3.99715
7.19616 -3.34354 -4.17662
-4.32293 6.1973 -4.05094
-11.4388 -0.515112 3.80616
-13.1675 1.87134 1.23486
7.45541 2.37186 -4.14178
11.9896 -5.18359 1.851
0.922567 0.22913 -1.46084
6.46157 10.2733 3.21782
6.02074 2.40058 -3.60653
10.0883 -8.93165 0.361968
2.23639 -0.770789 -1.77779
3.4765 -4.8101 -3.34812
1.38238 -2.13494 1.83468
2.69364 -12.1382 2.87412
4.38806 12.3748 1.69922
-10.6812 -5.73096 3.2334
-12.821 -2.41032 -1.88633
11.997 5.17814 -1.84094
-1.75518 11.6162 3.58157
0.830964 10.9062 4.10016
-7.19496 3.33718 -4.17547
2.70845 -12.5356 2.30196
-3.00439 3.80484 -2.81431
2.12578 -4.81154 -3.01697
2.35624 2.1836 2.07769
1.29301 8.83423 -4.39399
11.0707 3.31428 3.73126
0.229536 -1.24888 1.50995
-10.0103 8.82274 -1.08409
2.51957 11.1068 3.84732
12.0632 5.58264 -1.25881
6.9157 7.72068 4.3092
-11.2121 -2.43974 3.78955
-8.61288 7.101 3.98465
-8.74848 9.76894 -1.73654
3.04066 10.5317 4.08878
-8.69822 9.38746 -2.34712
-5.07221 -4.84555 3.8406
0.915818 -2.75928 1.96144
6.1224 -6.57002 4.40004
-10.2112 -1.44656 4.32262
-11.0709 -3.31058 -3.7319
10.1294 -4.70707 3.98076
-4.37551 12.7451 0.34765
11.4565 -0.450223 3.79591
0.00811195 -13.4369 0.653873
3.80417 -5.5651 3.72319
-0.335736 -1.77224 1.62198
2.18419 -9.06679 -4.42459
4.51632 -2.67878 -3.01241
-2.69364 13.2034 -0.347285
3.11261 9.28704 4.41041
4.8731 -1.87507 2.99782
-12.2058 -2.35591 -2.87714
-10.122 4.70954 -3.98395
0.272808 5.8344 3.30242
1.75013 6.97166 3.91135
2.14349 -10.4534 -4.2121
-11.2601 -5.17615 2.92507
9.93886 8.10473 -2.30244
-5.19158 12.4514 -0.00356522
-4.33044 11.6274 2.90671
4.27649 -6.81185 -4.20864
-1.83388 -12.5288 2.5597
-5.73578 -0.92989 -3.28774
-7.70918 -0.509395 4.10976
5.78323 -3.27622 3.68131
-10.0004 -8.49742 -1.71486
-7.44161 -10.8141 1.70514
4.24025 -6.81804 4.20461
7.48358 11.0636 -1.033
-0.490591 -10.1179 4.36298
13.1401 1.92367 1.29706
2.05812 -5.55914 -3.34471
11.9616 -6.23779 -0.000635693
12.1201 -2.41488 -2.96731
12.3822 -0.467556 2.92738
-2.51988 -11.1067 -3.84732
5.19569 -12.1925 1.37728
-3.846 0.749129 2.3762
4.57296 -4.22822 -3.48847
12.2825 1.45721 2.95486
5.18911 12.4525 0.00300005
1.36937 -3.35506 -2.2471
-0.832922 -10.9019 -4.10213
0.928435 12.4823 -2.76542
-9.37214 8.96945 2.03406
2.65486 -8.56169 4.39817
11.4377 0.511428 3.80702
3.54178 12.955 -0.691918
-4.08845 8.04422 4.4046
-9.48014 -1.9175 4.41974
-7.44149 -10.8139 -1.70568
-9.61944 -7.2031 -3.33866
-1.28041 7.47869 4.06212
-8.48755 -3.33768 4.41331
-0.0894588 3.89731 2.36728
-8.69806 9.38678 2.34814
-3.55346 -12.4868 -2.01448
-4.80674 5.53776 -3.96816
5.83963 -10.9111 2.94636
7.12514 0.00726665 -3.88603
1.32126 4.66068 2.81254
3.22274 4.69224 3.2299
11.1167 -7.0337 1.63872
-11.4536 0.453077 -3.79781
-12.2797 -1.46021 -2.95778
10.009 2.39371 4.32799
6.4499 -0.459086 -3.59945
4.37518 12.0394 -2.3273
-8.87966 10.1356 -0.348787
-1.49251 -0.798919 -1.59572
0.00706435 -13.4382 -0.645701
-5.98452 12.0727 0.355536
2.70773 12.5353 -2.3025
7.72793 -0.485393 -4.1155
7.2097 3.32849 -4.17845
-3.62465 -7.40088 -4.26242
9.47983 1.91726 4.41977
-13.2331 -2.33363 0.65089
6.44122 0.479645 -3.59616
3.03007 3.85978 2.84318
8.4901 3.33504 -4.41341
4.06661 -9.33005 4.35343
-12.3439 -4.2702 1.85203
4.22472 11.1283 3.44657
-11.3526 -1.47473 -3.80784
-11.1307 -7.38264 -1.0347
11.1318 7.38134 -1.03385
0.919428 -13.4458 0.325435
-2.02546 5.52602 3.32417
1.72514 -9.67138 4.40755
-0.820762 10.9094 -4.09903
-2.6377 8.56325 -4.39776
-8.97727 6.20448 4.11182
11.0712 3.3109 -3.73157
-9.01999 -6.19193 -4.09877
12.2064 2.35266 -2.87722
-0.399149 -8.70838 -4.36354
5.51412 4.07851 3.77438
10.7674 -4.13599 -3.74707
-0.933458 -12.8382 -2.2201
-4.54279 8.67307 4.41079
-0.922169 -12.042 -3.279
-2.23873 2.11548 2.02622
-2.26202 -3.41537 2.457
11.2501 -2.33513 3.77882
-11.6435 4.27908 -2.9101
-9.99055 -4.78764 4.03027
8.60942 -7.10342 -3.9853
-4.1063 8.0629 -4.40702
-5.93558 -11.3444 -2.33778
-5.51832 -4.06992 -3.77362
7.40023 6.89822 4.36543
-5.65944 10.4274 -3.48173
-8.15453 -10.4466 -1.38013
-4.57562 -8.70132 4.40686
3.05746 0.690854 -2.04719
-1.83049 13.1394 1.33937
-3.05016 10.5312 -4.08773
0.923858 13.4442 0.339804
-8.74817 -9.77081 -1.73384
3.01814 -3.81962 2.82415
-11.7884 -1.90748 3.41102
-13.2829 -0.0357365 1.28838
-12.2828 -1.4597 2.95406
-9.13027 -8.10847 3.13745
-13.4408 -0.436262 0.581964
7.05674 9.5669 -3.46044
-5.3599 9.88195 3.93905
-5.8901 -6.63149 -4.38643
8.87914 -10.136 -0.349562
10.6805 5.7312 -3.23398
0.92429 13.4448 -0.333005
-6.24072 5.86176 4.33524
-9.77618 -3.29237 -4.32197
-10.0356 -6.25186 3.51742
5.18436 -6.75566 4.32593
2.87614 -5.43314 -3.45019
5.1367 11.5182 2.63371
5.52106 -7.35326 4.41859
6.44503 -0.467004 3.59748
6.69958 -11.1158 2.02225
-9.02191 -6.18835 4.09898
-3.10063 -7.97885 -4.3349
-7.86206 6.01392 -4.39922
0.457999 -2.123 1.71989
1.27176 -7.48675 4.0644
-11.6097 -6.76279 -0.660413
-3.54701 12.953 -0.69521
10.0023 8.49521 -1.71472
6.69478 11.1182 2.02301
-12.6224 3.33677 -1.86413
9.35736 -6.71328 3.76001
2.15354 -10.4502 4.2125
8.21304 5.09294 -4.42022
2.95337 6.66641 3.9521
-3.56009 12.483 2.01816
-7.5113 -4.68554 -4.38415
5.7493 -0.915226 3.29311
-11.9835 3.30156 -2.87863
3.82349 5.55269 3.7235
-0.921672 -13.3376 0.983064
1.7384 -9.65539 -4.4089
-7.9794 -2.85012 -4.317
0.318749 5.84465 -3.30852
-7.80343 7.43938 4.16894
-4.3829 12.6167 -1.03556
-3.03996 3.81269 2.82811
-0.3789 -7.19177 -3.91685
7.06442 -9.55738 -3.46325
-1.73726 9.6563 4.40882
6.38386 -3.76003 3.99701
-8.98303 -0.48474 4.40174
-12.3457 4.26463 1.85239
-1.82432 -13.1394 1.34197
4.58357 4.24039 3.49606
2.69666 -12.1373 -2.87453
6.79421 -9.04586 -3.89578
-11.1176 -7.03142 -1.63981
4.37563 -12.7454 0.343529
-13.3723 1.3741 -0.616462
-8.58485 3.28807 -4.41845
-4.49462 0.92951 2.6891
-8.74651 -9.77172 1.7348
-0.927689 12.482 -2.76583
6.84101 -1.95101 3.8814
11.5741 6.04279 1.86294
11.6102 6.76138 0.661764
5.75861 -0.912118 -3.29736
12.7267 -0.952613 2.40506
-5.14807 11.5125 2.63446
5.9243 -11.3473 -2.3423
0.100181 -3.88651 -2.36257
-5.97228 -11.6927 1.69938
5.49312 -4.05979 -3.76226
-6.69533 -11.1172 2.0242
-7.44888 -2.38307 -4.14089
10.8881 -6.20138 2.74721
8.74742 -9.76908 1.73792
4.38468 -12.0378 -2.32436
10.0802 -2.32636 4.31446
-11.0393 -6.63026 2.21082
-5.78638 3.27449 3.68218
4.37741 -12.3796 -1.69676
12.3616 0.494436 2.95145
-3.56496 7.30678 4.2331
2.21536 -0.780641 1.77265
-6.69806 11.1146 -2.02574
2.8427 5.20961 3.34802
5.14786 -11.5129 -2.6341
-0.928092 13.1312 -1.61646
-4.70858 -6.16253 -4.11958
-10.5515 -2.78887 -4.11132
0.929395 13.1312 -1.61634
-6.39137 -3.76368 -4.00013
3.5375 -1.47559 2.33819
7.99361 -9.74009 2.64996
7.99918 -5.21527 4.42502
0.927185 -12.4757 -2.77435
-6.44263 -0.476827 -3.59671
-0.922339 -13.3351 -0.99306
-7.35113 10.4697 2.35549
-6.8412 1.9543 3.88186
-8.29949 0.985918 -4.29113
0.933118 12.8431 -2.21158
-12.9522 1.4768 -1.90612
6.4278 -8.5087 4.21474
5.83464 10.9233 -2.93609
9.81857 -7.66728 2.84333
12.411 2.8932 -2.43461
5.97242 11.6929 -1.69883
13.0363 3.26088 -0.64717
-11.9495 0.0169039 -3.40378
-8.29435 -0.95957 -4.28918
7.53307 1.46426 -4.09219
-11.8116 1.91074 -3.38904
-3.52133 1.48451 -2.33312
-12.7249 0.951019 2.40814
7.3494 10.474 2.35127
12.4487 5.06167 0.644093
-1.38814 4.4154 2.70775
0.921979 12.0442 3.27686
-5.92188 9.23635 4.08403
-6.26664 -1.46099 -3.58493
5.36088 -9.88968 3.93473
12.6288 3.33214 -1.85359
0.383378 -8.72148 4.36558
11.1337 -7.37938 -1.03185
8.40334 8.4775 -3.41573
-7.61813 -8.80015 3.66845
3.42425 1.53169 -2.30225
-2.68903 -13.2046 -0.343327
-13.0528 0.462233 -1.85356
7.24774 10.036 -2.94163
10.3872 -5.262 -3.66499
7.39171 -2.42028 -4.12694
9.48629 -9.50326 -0.707947
0.35154 0.752083 -1.4459
-5.00486 9.31231 -4.24699
-2.68891 -13.2044 0.345372
-5.10048 -0.947503 2.98118
-1.7541 11.6123 -3.58488
-7.06399 9.5574 3.46346
-4.81529 -10.5363 3.71028
-12.9536 1.47503 1.90356
5.98046 -11.9412 -1.04017
-0.928368 13.3342 0.995314
-5.37348 -9.89254 3.92964
10.0765 -2.33065 -4.31515
-13.1392 -1.92492 1.2996
-0.829831 10.8919 4.10688
-9.3444 -6.70457 3.7711
-6.8184 -6.39283 -4.42514
-9.36802 -8.97353 2.03437
-13.0045 -1.39376 1.81445
1.32786 3.16274 -2.16568
-6.80194 9.04426 -3.89366
-11.3842 1.36687 3.79548
-1.30428 -2.00921 1.78711
10.1962 -1.41593 -4.3273
3.75403 -4.10846 -3.16745
-5.73564 -5.35202 -4.14857
-3.23326 -4.68084 3.22822
3.17429 -7.96373 4.33742
12.7049 4.53636 -0.00257794
-12.4488 -5.06098 0.645391
4.07326 9.3414 4.3507
8.9827 -0.49459 -4.40177
8.97962 0.485047 -4.40138
-0.385082 8.72004 4.36536
-2.7073 2.7894 -2.3623
-4.06459 9.33648 4.35238
12.3468 -4.26274 1.85153
0.489379 10.1185 -4.36286
11.0861 7.65372 0.388123
0.814668 8.06911 4.2276
10.0109 8.82192 1.08442
4.38377 -12.0424 2.31772
-2.33484 3.43298 -2.48242
5.26301 -2.71692 3.34231
5.57186 7.34794 4.42013
-9.81986 -7.6625 -2.84575
7.52729 -4.69608 4.38677
-4.27776 -3.4044 3.11909
-12.2076 -2.35194 2.87597
-1.7593 -6.97322 -3.91286
7.03061 -6.31546 -4.42639
7.34779 10.4744 -2.35224
1.1944 7.46758 -4.05324
0.330871 -3.21919 2.08706
-11.2517 2.33765 -3.77738
-11.9915 5.18273 1.84804
-3.80938 -5.55511 -3.72084
0.831626 -10.8904 -4.1075
13.0354 -3.26995 -0.638988
-3.04464 10.5286 4.08967
13.4152 -0.478694 -0.730097
-9.9917 -4.78778 -4.0297
-3.01987 0.784915 -2.04164
-10.0887 -8.93122 0.362167
-7.02787 4.19138 4.24733
-2.70247 -13.0812 1.03102
10.5569 2.78873 -4.10894
-1.29738 -8.83606 4.39428
-10.5928 -7.96212 1.38272
-8.2086 -10.7056 -0.000469966
13.2329 -2.33795 -0.648106
-4.37705 12.3817 1.69249
13.4402 0.446174 0.583838
4.10038 -8.05298 4.40592
4.08605 -8.04516 -4.40458
-0.350635 -1.78805 -1.62647
-4.5697 4.21063 -3.4817
7.98271 9.74734 2.65181
11.8107 -1.91002 -3.38993
-0.92418 -13.4441 -0.341539
8.58552 7.12418 -3.98815
9.4872 9.50237 0.70781
8.84054 10.0077 1.04721
-3.54415 1.47094 2.34012
12.63 3.33396 1.84994
8.87986 10.1353 -0.3501
-5.71462 5.35445 4.1442
-11.1161 7.0333 -1.64047
-5.98075 11.9398 1.04453
-4.28885 6.81418 4.21109
-7.24483 -10.0362 -2.94346
-7.48488 11.0622 1.03465
2.69916 12.1378 2.87323
-4.07285 -9.34176 -4.35067
-11.6419 4.28362 2.91007
3.49121 11.6664 -3.174
-2.83541 -3.00847 -2.47428
-8.58134 -8.95865 -2.90935
3.02539 -0.794767 2.04467
-0.914755 2.77752 -1.96768
9.53246 -4.3001 4.28321
-6.70138 11.1168 2.01871
5.92469 9.21559 -4.09166
-1.7272 7.00073 3.9204
8.15616 -10.4449 1.38092
8.33602 -4.26091 4.4255
-5.78614 3.27809 -3.68287
2.62704 -11.6626 -3.39871
-2.70766 -12.5366 -2.30039
11.2618 5.17502 2.9238
5.97725 -11.6866 -1.70688
-6.46001 -10.2729 -3.21912
10.6317 4.27003 3.80155
-1.3183 0.736176 -1.5558
3.54758 -12.9528 -0.695671
2.13059 7.73467 -4.20278
5.65711 -10.4217 3.48713
-4.38377 12.6164 1.03526
5.3741 9.89323 -3.92911
8.70106 2.33674 4.40314
8.93246 1.40273 4.40642
-6.81211 -1.96589 3.87175
-3.83064 0.769354 -2.37121
5.83843 10.9231 2.93407
-10.2126 -1.4468 -4.32226
-0.924298 -0.232268 1.46117
9.48341 1.91426 -4.4196
-3.95674 -6.80321 -4.15656
1.64153 3.82104 -2.48566
-2.22833 -0.673313 1.7662
5.88948 6.63182 4.38643
2.29242 3.40152 -2.45947
10.2102 1.44695 4.32283
-10.0894 -8.93059 -0.360934
1.33655 2.02152 1.79593
6.5065 5.8039 -4.36378
-5.74514 0.91609 -3.29119
-1.2144 -5.89805 3.39005
-10.0546 6.23136 3.51276
-12.8203 -2.41387 1.8864
11.5756 -6.04238 -1.86053
-0.00682339 13.4382 0.645701
10.012 2.39322 -4.32732
10.6293 8.30712 -0.000177936
5.6513 10.4335 3.48038
-5.74145 -0.928502 3.29035
0.859373 2.48909 1.8647
-5.22648 -2.74034 3.33185
-8.87868 -10.1364 -0.349783
11.3486 1.47554 -3.81046
11.0853 -7.65482 -0.388582
-9.44534 5.16542 4.17542
-2.00665 -4.70669 2.94612
1.41787 -2.13545 -1.84126
-0.925889 2.72633 1.9512
-4.0681 9.32914 -4.35348
-5.92507 9.22764 -4.08672
11.3446 3.81602 -3.38513
-3.55978 12.4846 -2.0155
-2.95301 -6.66703 3.95227
-6.91507 -7.72298 4.30886
11.9158 3.37572 -2.9351
12.7277 -0.946999 -2.40403
-4.76659 5.54482 3.96012
3.40044 1.55088 2.29622
-0.391781 -0.750079 -1.44779
-6.65215 -5.06263 -4.29151
4.8169 1.88736 2.97415
-5.18935 -12.1969 -1.37287
7.3373 -6.91891 -4.37124
-6.91769 -7.72142 -4.3087
-1.31924 -3.13608 2.15417
3.16882 -2.18801 -2.34612
-1.39144 4.4185 -2.70965
-10.8979 -6.19282 2.74138
-13.3718 1.37576 0.6189
3.04001 -3.76613 -2.81038
2.49785 -0.0457099 1.81992
-6.38006 3.76075 -3.99593
-10.5588 -2.78381 4.10863
-11.0869 7.6524 -0.389726
1.7057 -6.9977 3.91718
5.92411 -11.3493 2.33947
12.7417 -3.77239 1.27128
-4.37587 -12.04 2.32589
2.16631 -5.61617 3.38894
-8.1227 7.97801 -3.84967
-4.32497 -11.6214 2.91607
-8.49228 -3.33643 -4.41362
10.5909 7.96404 1.38386
-7.97724 -2.84906 4.3165
4.3757 -12.7446 -0.351982
12.3624 0.49009 -2.95058
-3.11023 -9.2898 -4.41024
-7.35214 10.4709 -2.35288
5.09962 -0.955786 2.98152
3.48588 11.6638 3.1783
10.1974 -1.41289 4.3271
0.640003 -5.16482 2.98939
-5.75237 0.914801 3.29455
2.17795 9.09665 4.42531
-8.301 0.991116 4.29161
-13.2334 2.33677 -0.646296
-13.167 1.87776 -1.23344
-12.7411 3.77026 1.27488
2.51177 -11.1025 3.85116
0.473431 -10.1298 -4.36082
-6.43114 8.50555 4.21493
-11.0413 6.63187 2.20624
4.06294 -9.3383 -4.35216
11.2761 -5.15674 2.91713
-0.929402 -13.1317 1.6152
-11.3448 -3.81624 3.38486
-11.0414 -6.6275 -2.21009
8.20865 10.7056 0.00118221
-9.43092 5.17601 -4.17847
-10.8409 0.995138 -4.12378
10.8406 -0.998474 4.12375
3.75826 -4.0686 3.15442
3.24497 4.67801 -3.23035
12.7409 -3.77165 -1.27434
5.92082 -9.23347 -4.08547
3.55949 -12.4842 -2.01618
12.6216 -3.33662 -1.86604
13.3585 1.42506 0.669002
-11.4583 0.451171 3.79462
-0.823565 -10.9134 4.09706
13.1659 -1.8756 -1.23794
4.32955 -11.6249 -2.91002
2.03195 -3.98198 -2.63201
-9.48715 -9.5023 -0.708254
6.03749 2.37713 3.60972
-13.2055 -2.75791 0.00220012
5.16235 -0.0123122 -2.96868
-5.97677 11.685 1.7108
-3.10889 -9.27869 4.41125
-4.51668 2.6813 3.0132
-10.2595 0.4584 4.33313
13.4611 -0.887887 -0.00528338
-9.78134 -3.28524 4.32132
8.51306 5.70965 -4.33759
-6.64546 5.05781 4.28957
12.0598 5.92968 -0.642122
7.24322 -10.0465 2.93436
0.928584 12.4777 2.77154
4.05372 8.07492 -4.40578
-0.386904 -8.71025 4.36375
12.9521 -1.4775 1.90618
-11.9887 5.18254 -1.8537
3.61786 7.41266 -4.26437
0.506191 -4.53209 -2.67494
-8.67773 5.6201 -4.31614
-1.81153 -13.3682 0.00338237
-9.13435 8.10127 3.13937
-2.14249 -10.4541 -4.2119
-8.21923 -5.08918 4.42003
-5.08836 -0.947621 -2.97533
8.69021 -2.35706 4.40261
5.98404 12.0737 0.347222
2.23858 -2.12236 2.02799
-1.71817 -9.68585 4.40621
2.69698 12.1363 -2.87551
-1.29175 -10.2855 -4.30889
-10.3859 5.26471 3.66492
-11.2737 5.15719 2.9196
11.2527 -2.33435 -3.77712
-9.07363 -3.79728 4.4063
13.4152 -0.481174 0.729355
-11.573 -6.04294 1.86491
4.54327 -8.68294 4.40995
-5.97667 11.6911 -1.69805
-0.00770762 13.4368 -0.654413
13.1681 -1.8743 1.23155
7.56098 -1.44281 -4.10014
-11.4162 3.7865 3.32846
-0.000573694 -13.0489 -1.87931
-0.467014 2.13209 -1.72301
-0.506681 4.56062 -2.6886
1.83376 12.5302 -2.55766
-5.92826 -9.21646 -4.09039
-10.6348 -4.26946 -3.7997
5.98368 11.9409 1.03571
10.8627 0.898282 4.1177
10.5945 -7.96044 1.38176
-4.22534 -11.1277 -3.44686
7.43969 -10.8166 1.70294
-6.3845 3.76337 3.99785
-3.41028 -1.54613 2.29927
-7.20202 -3.32856 4.17634
2.69436 -13.2031 -0.34783
13.0332 0.50082 -1.89206
9.43889 -5.16982 4.17684
-2.20327 0.778644 -1.76894
-4.37642 -12.7445 0.350962
-8.8788 10.1362 0.350438
10.0111 8.8211 -1.08586
10.4204 5.23992 3.64966
0.854412 11.529 3.72799
10.2957 0.471358 4.32425
6.43267 -8.50478 -4.21481
-8.68982 2.35992 -4.40266
-6.82243 -1.964 -3.87559
13.1394 1.92553 -1.29859
0.928368 -13.3361 0.987662
2.69035 -13.0849 1.02633
-1.31998 -3.09989 -2.14063
-5.83908 10.906 2.95219
-1.19153 -7.46515 4.05223
-1.29736 -8.8433 -4.39514
2.70953 -12.8531 1.68544
-11.6126 6.75797 0.660065
1.22221 5.88077 -3.38266
5.74742 5.3509 4.15106
-2.7025 -12.8564 -1.68102
-0.287453 -5.81474 -3.29318
-1.69565 6.98878 -3.91277
7.98535 9.74801 -2.64871
-7.24145 10.0458 2.93633
-0.867331 11.5341 -3.7235
-2.26159 -3.43884 -2.4659
9.48542 -9.50378 0.709279
-11.5749 6.04121 1.86304
8.58077 8.95834 -2.91014
-2.68106 8.55211 4.39802
10.4196 5.23781 -3.6509
6.82356 6.39122 -4.42522
-2.80078 -5.18462 -3.3277
0.540749 3.33787 2.14561
10.0889 -8.93098 -0.362227
7.79897 -7.44276 -4.16933
3.55183 9.94502 -4.25093
-7.05696 -9.56669 3.46049
-0.862541 -11.5352 3.723
-4.32931 11.6264 -2.90834
-3.40752 -1.53274 -2.29577
-4.47624 -0.989386 -2.68649
11.8555 4.74571 2.3925
10.898 6.19195 -2.74186
0.390854 4.59096 -2.6977
2.15234 10.4474 -4.21358
9.02234 6.1895 4.0985
9.62304 7.19897 -3.33826
4.81536 10.5375 -3.70946
-6.82121 -6.39118 4.42517
3.02758 -0.799505 -2.04596
8.97886 -6.20479 -4.11115
3.78293 0.85351 2.3582
-0.920107 -12.0499 3.27118
4.48687 2.64199 2.99066
12.7709 -4.17454 0.659822
-4.37688 -12.6191 -1.03448
12.206 2.35603 2.87683
10.5582 -2.87237 -4.09824
4.5731 8.70298 4.40681
2.70223 13.0812 -1.03134
-7.39711 -6.89947 -4.3657
-7.77646 -7.4604 4.17098
-7.56326 1.44562 -4.1011
2.70274 12.8564 1.68098
0.583618 -0.516374 1.44018
7.11905 0.01154 3.88356
8.3381 -4.26266 -4.42555
-3.13738 2.17172 -2.33057
-5.65255 -10.4326 3.48058
11.1318 7.38163 1.03344
9.37051 -8.97067 -2.0347
-2.07344 4.79568 2.99945
1.38072 -4.40616 2.70242
-11.1342 7.37844 -1.03247
6.04447 -7.92869 4.38972
-0.00790037 -6.47158 3.60192
1.83396 12.5311 2.55629
-10.4544 7.16796 2.53958
9.35263 -6.71568 -3.76176
-1.82821 1.40606 1.75967
9.27866 5.28451 -4.20946
-11.8558 4.74542 -2.39227
8.40602 8.47651 3.41462
11.4417 0.512525 -3.80429
-2.03611 -6.36708 -3.69826
6.75144 -11.61 0.692328
-0.812738 -8.06352 -4.22602
-0.927185 12.4765 2.77327
-0.00142843 -13.0452 1.88702
13.2055 2.75803 -0.00186628
-8.98046 0.49301 4.40153
8.69683 9.38794 -2.3481
-0.532195 -3.34253 2.14694
7.49645 11.1976 -0.347477
5.07823 4.84889 -3.84336
0.823836 -10.9038 4.10155
-0.933434 -12.8435 2.21092
-12.7058 4.53341 0.00273302
0.483125 10.1145 4.3637
2.21297 -7.8421 -4.23809
-2.70787 12.5353 2.3025
-5.25098 4.7951 -3.88027
-2.69503 12.1374 2.87479
-5.24705 -2.72899 -3.33814
-7.02838 4.1892 -4.24714
-5.74951 5.34413 -4.15008
13.2052 -2.75947 -0.00219395
5.25158 -4.79429 3.88022
5.20742 -6.75024 -4.32792
7.45265 2.37901 4.14163
-10.4528 -7.17233 -2.53788
11.5734 6.04392 -1.86305
7.19839 -3.33576 4.17624
5.10163 0.955726 -2.9825
-5.18933 -12.199 1.36734
8.83934 -10.0085 -1.04805
8.87851 10.1366 0.349524
5.88926 3.23458 3.71347
10.8954 6.19565 2.74234
9.71796 4.18591 4.24392
-9.6289 -0.027997 4.42207
-10.6936 5.72952 3.2227
13.2331 2.33744 0.647182
-5.01271 -9.31498 -4.24495
1.41448 -4.47113 -2.73725
-4.81356 -1.88348 -2.97192
-8.00254 5.21482 -4.42495
-8.40607 -8.47618 -3.41482
-11.1352 7.3783 1.02937
11.9495 -0.0181205 3.40373
7.69805 6.07778 -4.40914
-6.75072 -11.6103 0.693122
5.4965 -4.06116 3.7638
-9.5341 4.29902 -4.28292
4.37585 12.7446 -0.352138
-1.83173 12.5309 -2.55715
-8.31816 -4.24829 4.42498
-1.74749 -11.6154 -3.5831
-1.26661 7.4893 -4.06498
-2.15262 -10.4484 4.2132
0.339946 1.77918 -1.62384
0.815818 8.07115 -4.2282
-10.5939 7.96164 -1.38108
3.15778 -2.16996 2.33755
13.3724 -1.37018 0.618425
0.0169693 6.46481 -3.5988
9.61142 -7.2048 3.34392
3.81233 -2.46914 2.66623
-8.83949 10.0082 1.04844
0.919195 12.0493 -3.27178
1.83221 -12.534 -2.55228
-1.40573 3.40632 -2.27345
-11.2643 -5.17517 -2.92092
10.0564 -6.23006 3.51202
-1.8341 -12.5326 -2.55401
-8.15698 10.4446 1.38037
-12.3643 -0.489986 -2.94826
-2.49854 0.0463459 -1.82015
-8.6963 5.60652 4.314
2.23968 3.43685 2.45962
-8.88149 1.448 -4.40203
-8.22598 -5.08807 -4.41974
-13.2835 -0.03783 -1.28634
-4.20967 6.82042 -4.2005
-4.21944 11.137 -3.44086
-0.926486 -0.214494 -1.4609
-6.45247 -8.4925 4.21402
-5.84105 10.9163 -2.94
4.5072 -0.907807 -2.69294
-8.5901 -7.12188 -3.98702
-11.6555 -4.28666 2.89282
12.3446 4.269 1.85149
0.37591 0.753665 1.44731
-2.51309 11.1033 -3.85051
4.92804 6.80278 4.30092
4.81243 -10.5321 3.71402
-0.477041 -10.114 -4.36382
0.930965 -12.843 2.21201
-0.353102 3.21986 2.08826
3.05851 3.84876 -2.84758
0.92028 -12.0407 -3.28046
6.66336 5.06074 4.29334
6.89311 4.25402 4.22482
-2.2312 7.80804 -4.2305
2.01011 4.71727 -2.95159
-8.3921 8.48978 3.41498
8.83879 -10.0087 1.04867
-1.74972 -11.6109 3.58654
12.0665 -5.57654 -1.25755
-3.9385 -10.567 3.91798
-10.1343 4.70539 3.97867
-5.01067 -9.31346 4.24572
-0.383729 -7.17223 3.90917
11.0414 6.6281 2.20952
-7.98523 -9.74746 2.64943
-3.8219 -5.55626 3.72439
8.29975 -0.988865 4.29127
10.0016 8.49614 1.71468
-3.55488 7.37513 -4.24848
-3.94862 10.5797 -3.90857
-4.82729 -1.89262 2.97986
-4.05331 -8.07559 4.40582
7.99565 -5.21498 -4.4251
8.87892 -10.1362 0.349776
-1.34222 -4.63658 2.80404
6.39818 3.75518 -4.00073
-12.8646 2.37265 1.80884
10.003 -8.49559 -1.71294
-11.9609 -6.23926 -0.00224399
-0.384938 8.71963 -4.36529
6.66262 5.06234 -4.29341
-13.3594 -1.4208 -0.666907
5.84018 -10.9082 -2.94922
-1.3111 10.277 4.3105
-3.55322 -12.488 2.01226
2.69083 -13.0848 -1.02637
-3.48425 4.81404 3.35186
-6.4272 8.5075 -4.21522
1.81194 13.3681 -0.00102782
-7.69529 -6.0785 4.4093
8.98044 -0.490822 4.4015
-11.0725 -3.31418 3.73003
4.37681 12.0419 2.32232
8.8805 -1.44874 4.40194
-1.40744 2.14564 1.84217
-2.14661 -7.75932 -4.21087
8.74666 9.77146 -1.735
4.28496 3.39814 -3.11993
8.13437 7.9848 3.84108
11.3442 3.81653 3.3853
-6.66629 -5.06136 4.29396
-6.94481 7.72344 -4.30342
9.48053 -1.87034 4.42027
12.322 -1.43467 2.90976
10.0532 -6.234 -3.51257
-4.0585 -8.07943 -4.40638
0.928042 -13.131 1.61707
7.24044 -10.0455 -2.93734
-12.0652 -5.57854 -1.2586
0.503534 -7.19503 3.92119
-12.4494 5.06021 0.643718
2.86058 2.97218 -2.47018
-2.69117 13.0848 -1.02613
-5.98414 12.074 -0.342888
1.75465 -11.6121 3.58495
1.20288 5.9351 3.40637
3.81055 5.5578 -3.72214
-12.4592 2.84412 -2.37682
9.3727 -8.96825 2.0349
9.99288 4.78512 -4.02974
10.7683 -4.13518 3.74664
-10.558 2.86798 -4.09884
1.19343 7.46189 4.05118
-11.5777 6.0419 -1.85693
6.14369 -6.56316 -4.4011
8.583 -8.9513 2.91454
11.6431 -4.28086 2.90986
6.75072 11.6102 -0.693751
4.48234 1.01819 -2.69237
9.07282 3.79692 4.4064
-8.8795 -10.1357 0.349886
10.6946 -5.72726 3.22294
-6.44594 -8.49319 -4.21526
-11.0838 7.65737 0.38701
-13.4563 -0.958274 0.00442577
-9.61481 7.20204 3.34289
-10.4575 7.16635 -2.53711
12.4512 -5.05615 0.643013
7.49712 11.1972 0.347448
13.3712 -1.37911 -0.620398
-7.06159 9.56014 -3.46274
12.0596 -5.92956 -0.643414
10.4525 7.17168 2.53879
-3.83311 5.56044 -3.72871
5.98286 11.9409 -1.03697
9.27398 5.28535 4.2108
-12.7704 4.17571 -0.660197
0.423845 -2.10163 -1.71191
10.0368 6.25044 3.51715
7.87378 -6.00821 4.3985
2.6303 11.662 -3.39862
11.0428 -6.62894 2.20675
2.62416 11.6638 3.39826
-0.918425 12.0485 -3.27278
-6.69511 -11.1178 -2.02349
-8.20817 10.7059 0.00021125
5.19598 -12.1948 -1.37094
-8.58847 3.28812 4.41864
1.40308 -3.39281 2.26762
8.1565 -10.445 -1.38012
-5.89531 -3.23333 3.71556
-7.48574 11.0624 -1.03218
-7.96039 2.87297 -4.31482
6.8431 -1.95594 -3.88277
-9.09408 3.76961 4.40544
3.55308 12.4886 -2.01139
-5.92478 11.3523 -2.33448
-6.7955 -9.04757 3.89443
-2.1812 -9.09264 -4.42524
9.94037 -8.10329 2.30201
-3.94685 -6.81948 4.15944
-11.3844 1.37557 -3.79466
-9.48442 9.5046 -0.709994
-4.51757 2.65836 -3.00782
-13.4144 0.47928 -0.733699
9.77971 3.288 -4.32149
-7.99778 5.21422 4.42507
4.38792 12.3725 -1.70429
6.79541 9.0467 -3.89489
-3.61471 -7.41235 4.26394
-10.2602 0.459302 -4.33296
-6.06694 2.38891 -3.62422
-10.6845 -5.72839 -3.23167
3.9503 -10.5845 3.90545
-0.00508519 -9.47066 4.42632
-10.4179 -5.24107 -3.651
1.58416 3.80467 2.4684
5.74771 5.3544 -4.15188
-8.98706 -0.482719 -4.40218
3.79097 0.814805 -2.358
11.3481 1.48126 3.81031
-9.13735 8.09861 -3.13886
-8.13706 -7.98343 3.84043
-8.98094 0.491868 -4.40155
3.94375 -10.5808 -3.90893
2.84962 5.92726 -3.6498
0.00104855 13.0487 1.87968
1.83082 -13.1376 1.34455
10.0882 8.93174 -0.361843
9.13018 8.1077 -3.13812
10.0095 -8.82322 -1.08515
-12.381 0.468511 2.92884
10.5925 7.96284 -1.38229
-7.24822 -10.0358 2.94144
3.0462 10.5338 -4.08706
-11.2768 5.15981 -2.9147
-3.04711 -0.681449 -2.04248
6.00334 7.93066 -4.39298
-0.297778 -5.84664 3.30895
-12.7277 0.951619 -2.4035
-3.99881 -0.0586874 -2.41267
-6.47573 10.2712 3.2118
-1.35274 -2.03496 -1.80232
10.6356 4.26679 -3.7999
-11.1173 7.03402 1.63696
-9.48151 -1.91141 -4.41974
3.10553 9.27535 -4.41163
7.49614 -11.198 0.345962
-1.59553 -3.79253 -2.46526
2.89282 5.9497 3.66739
4.48138 0.99425 2.68939
3.08626 7.99735 -4.33726
-6.4741 10.2664 -3.21698
8.5883 7.12267 3.9875
-5.09443 0.949985 -2.9785
5.79554 -3.26945 -3.68462
-1.82492 13.3664 -0.00216918
0.921684 13.3374 -0.984228
-5.89366 -6.63324 4.38694
8.5087 5.71507 4.33774
1.26679 5.29514 3.10798
-5.83565 -10.9225 2.93638
-5.36443 9.89556 -3.93065
-2.51102 11.1016 3.8519
2.64806 8.54868 4.39651
9.8172 7.66349 -2.8477
-10.4508 -7.1735 2.53932
-0.862157 11.5276 3.72857
-2.69414 12.1384 -2.8739
-12.6288 -3.33514 -1.85192
4.3111 -6.19186 4.04693
8.68517 -2.36102 -4.4022
-3.48883 -11.6656 3.17556
-13.0021 -1.40058 -1.81808
-13.4402 -0.447067 -0.583774
-6.04262 7.9283 -4.38991
-6.44122 -0.47735 3.59606
-13.2316 2.34163 0.651708
-9.13219 -8.1073 -3.13675
5.97221 11.6937 1.69746
-12.3455 -4.26778 -1.85071
-7.88738 6.0019 4.39764
-3.94673 10.5835 3.90674
-2.04935 4.03536 -2.65848
9.71282 4.18807 -4.24524
11.7907 1.9081 3.40884
-1.26504 8.85389 4.39584
2.14709 10.4523 4.21222
-5.48966 4.06498 -3.76241
3.84324 -0.7575 2.37571
-7.72764 0.481174 -4.1153
-5.26382 2.72045 3.34344
-6.6697 5.04912 -4.29288
-3.51778 4.76539 -3.34243
-2.90966 -5.95188 -3.67159
-10.6316 -4.26914 3.80186
1.66374 -6.18564 3.57144
0.671366 -5.79557 3.29928
2.51165 -11.1025 -3.85123
-6.89477 -4.25268 4.22501
10.1305 -4.70508 -3.98069
-4.87044 1.88548 2.99842
8.13703 7.98362 -3.84036
-10.0043 8.49475 1.71187
-3.79687 -4.09001 3.17506
-2.7024 -12.8557 1.68266
-7.51709 4.70021 4.3859
3.12134 -9.30727 4.4083
-6.07222 2.38541 3.62587
-12.3217 1.43999 2.90933
-7.43863 10.8169 -1.70371
-6.30866 1.44118 3.60173
11.0856 -7.65434 0.388867
-3.04663 -3.85025 2.84453
-11.9166 -3.37294 -2.93515
2.02352 6.36838 3.6971
4.78642 5.52665 -3.95981
-13.2053 2.75897 0.00215494
-7.72963 0.484459 4.11605
-10.8866 6.20141 -2.74889
-12.0595 -5.93081 0.640577
-12.4516 5.05596 -0.640968
-9.61075 7.20526 -3.34418
9.13594 -8.09969 3.13922
-2.70727 -12.5358 2.30198
2.14321 7.75046 4.20816
-4.37726 -12.6181 1.0372
4.79177 -5.53963 3.96494
-10.1974 1.41298 -4.3271
11.4152 -3.78538 3.32981
2.44421 -6.47419 -3.80076
10.3877 -5.26135 3.6649
9.36631 8.97475 2.03514
-7.55957 1.443 4.09968
-2.51508 -11.1048 3.84926
-8.88463 1.44943 4.40239
3.50542 -4.78591 3.34687
3.18943 -7.95218 -4.33644
-6.4457 0.462295 3.59762
5.51842 -7.35187 -4.41842
-9.93982 -8.10499 -2.30088
6.07634 -2.38631 -3.62777
5.24321 -4.79441 -3.87773
-8.13288 -7.98521 -3.84158
3.77278 -5.57242 -3.71808
-8.15467 -10.447 1.379
-2.62819 11.663 -3.39811
8.74759 -9.76927 -1.73734
12.0655 5.57899 1.25706
2.7193 -2.7739 2.36108
-3.74962 4.04206 -3.14191
11.9833 -3.30113 -2.87899
12.0582 5.93275 0.642504
3.54151 12.9544 0.695762
4.10105 -3.37219 3.04128
-10.0092 -2.39297 4.32797
-12.1211 2.41193 2.96683
8.39518 -8.48834 3.4139
1.75444 11.6127 -3.58447
-7.20211 -3.32947 -4.17648
-10.7705 4.1297 3.74659
-11.1173 -7.03162 1.64008
-3.08369 -2.24281 -2.3294
2.70739 -12.5356 -2.30219
-0.320081 3.22481 -2.08885
-10.9734 3.29688 3.801
-5.21311 6.74746 4.32818
4.21903 -11.1415 3.43711
8.68745 -5.61274 4.31506
2.709 -12.8532 -1.68539
-11.7866 -1.91418 -3.4117
-3.0385 -10.5321 -4.08888
-3.48703 -11.6642 -3.17758
-11.1325 -7.38082 1.03275
-6.39262 -3.76073 3.99998
6.79985 -9.04502 3.89407
7.62581 -8.79053 3.6702
1.9645 4.68072 2.92625
7.97942 2.84702 -4.31678
-12.3817 0.469781 -2.9279
11.8546 4.74595 -2.39376
-5.1449 11.5094 -2.64038
0.48431 -4.55304 2.6838
13.4412 0.439603 -0.578894
-2.70934 12.853 1.68583
4.78445 5.50517 3.95302
6.30703 -1.44336 -3.60122
4.6501 6.18346 -4.11338
1.74389 6.95338 -3.90365
11.087 7.65216 -0.38989
-8.39791 8.48693 -3.41306
8.48681 3.33888 4.41329
-8.50968 -5.71522 -4.33752
2.694 -13.2032 0.347748
-9.816 3.2497 -4.3158
-7.11588 -0.0108749 -3.88226
-3.54118 -12.9546 -0.695093
-3.54178 -12.955 0.692561
11.6135 -6.7567 0.658754
7.06294 -9.55973 3.46234
8.74776 9.77117 1.73384
-12.0589 5.93126 0.64303
-4.3769 -12.0414 -2.3231
0.922193 13.3356 0.991447
2.64221 8.54554 -4.39594
11.117 7.03272 1.63924
-8.92718 -1.40262 -4.40592
0.225679 -1.23029 -1.50666
-8.58041 -8.95903 2.90983
8.29675 0.958622 4.28974
0.818822 10.9126 -4.09759
-2.03285 -6.37754 3.70224
-3.08518 -7.99308 4.33642
7.48543 -11.0626 1.03226
-1.22849 -5.24501 3.07954
-11.9484 0.0183584 3.40474
-11.3464 -1.48085 3.81151
-1.7175 9.68014 -4.40681
-7.34986 -10.4737 -2.35129
-8.69431 -9.3894 -2.34917
-5.98402 -12.0738 -0.346553
-2.70806 12.5358 -2.30164
3.55814 -7.3459 4.24183
10.5929 -7.96284 -1.38128
-4.22083 -11.1251 3.45055
2.2312 -7.8288 4.23595
-10.8379 0.998774 4.12495
3.77568 2.46775 2.65116
0.919406 -13.445 -0.334222
8.98661 0.483065 4.40213
2.3068 2.20158 -2.06836
-5.56939 -7.34782 -4.42003
7.97578 2.85026 4.31628
11.1177 -7.03243 -1.63819
-0.477574 4.52993 2.67242
-0.583584 0.520594 1.44049
1.29208 10.2944 -4.30651
-7.80566 7.43921 -4.16834
-2.4019 3.44868 2.50601
-5.16466 6.75943 -4.32406
3.94961 6.8172 4.15925
-12.7758 -4.16654 0.646512
12.0664 -5.57753 1.25648
-11.9968 -5.17985 1.83989
4.51848 -2.67002 3.01114
-0.476122 10.1304 4.3607
3.55346 12.4865 2.0151
4.38355 -12.6154 -1.03963
-8.15491 10.446 -1.38078
-7.52148 -4.68043 4.38499
-3.54744 12.9523 0.698009
-2.32502 -2.19419 2.07156
7.44168 10.8142 -1.70496
-5.75098 -5.3531 4.15236
5.97641 -11.6884 1.70402
10.8916 -6.1979 -2.74536
-5.5217 7.35298 -4.41859
3.03034 2.20106 -2.29968
-12.8623 2.36734 -1.81585
-6.10577 6.57624 -4.3993
11.3857 -1.36973 3.79416
2.68442 -8.54765 -4.39764
6.4733 -10.2701 -3.2141
-12.1194 2.41807 -2.96741
-9.35779 6.7123 -3.76018
-11.9622 6.23683 -0.0018389
10.5536 -2.87398 4.10011
-8.32858 4.26569 4.42541
9.63305 0.0261398 4.42186
4.545 -8.67605 -4.41043
3.9918 0.0543156 -2.40948
-8.93633 -1.39921 4.40674
-4.48903 -2.63914 -2.99088
-11.0862 -7.65346 0.389438
-10.0105 -8.82163 1.08629
3.18014 -6.6733 -3.99079
0.00322274 9.45845 4.42637
5.98457 -12.0733 0.348245
12.7056 -4.53415 -0.000962074
8.58535 -8.94982 -2.91386
5.65207 -10.4195 -3.49104
-9.71774 -4.18505 4.24411
-5.19598 12.1948 1.37098
1.3007 8.84081 4.3949
-10.1968 1.41523 4.3272
6.82178 1.96246 3.87516
8.5806 8.95934 2.90938
7.35202 -10.4691 -2.35542
5.21035 2.74342 -3.32561
-5.92346 11.3458 2.34509
-6.75089 -11.6104 -0.692148
9.02179 6.18948 -4.09874
9.61975 7.2025 3.33876
8.61451 -7.09901 3.98465
0.771122 -8.06825 4.22618
8.20805 -10.706 0.000119632
7.4959 -11.1978 -0.348775
10.0049 -8.49451 1.71128
-6.75122 11.611 0.688238
10.9707 -3.30221 -3.80172
-8.70154 -2.33428 4.40314
7.02197 -4.19518 -4.24649
-10.8951 -6.19546 -2.74291
-10.5943 7.96058 1.38191
-5.97221 -11.6939 -1.69692
8.98097 -6.20266 4.11091
6.65966 -5.05217 4.29142
-0.000100726 12.3508 -2.97648
-8.68855 2.3573 4.40244
-0.488827 7.20266 -3.92381
4.21836 11.124 -3.45223
-11.2478 2.33519 3.78036
-3.77674 -4.08643 -3.16704
-10.0898 8.92987 0.362321
-9.71796 -4.18596 -4.24392
11.8559 -4.7479 2.39065
1.83036 -13.1398 -1.33834
-5.98346 -11.9412 -1.03507
-7.05828 -9.56534 -3.46075
-9.8046 3.25409 4.31822
-6.0395 -2.37174 -3.60967
8.12326 -7.97702 3.84989
9.09943 -3.76546 4.40508
0.411012 4.56384 2.68553
10.4562 -7.1664 2.53872
8.31756 4.2522 -4.425
-7.53118e-05 12.3572 2.96858
-0.511699 7.1796 3.91529
3.54708 -12.9526 0.697836
-4.66606 -6.18048 4.11578
-6.02573 -2.39012 3.60691
1.72195 -6.98981 -3.91567
-5.05234 -8.04912 -4.42596
13.3589 1.41798 -0.671472
4.32725 11.6198 -2.91701
3.7759 4.08492 3.1662
4.69272 6.17126 4.11871
3.06948 2.25779 2.32824
-7.54908 -1.4588 -4.09721
-11.2072 -2.43732 -3.79325
12.7404 3.77796 -1.27038
-11.8549 -4.74725 2.39246
-9.37186 8.96878 -2.03537
5.13974 11.5216 -2.6274
-7.69306 -6.07999 -4.40938
-4.21944 11.1385 3.43949
-0.919567 12.0415 3.27967
-11.0871 -7.65226 -0.38861
10.2615 -0.45402 -4.3327
-7.4969 -11.1973 -0.347688
-7.6279 8.79055 -3.66912
-0.377846 -4.54154 -2.6735
-9.47854 1.8735 -4.42034
4.98518 -9.30024 -4.25362
-9.35496 6.71486 3.76075
-1.20202 -7.45934 -4.05077
11.7872 1.91064 -3.41167
-10.2927 -0.474458 -4.32497
12.4116 2.8957 2.43286
11.9479 -0.0170912 -3.40522
-8.40382 -8.47745 3.41546
1.28773 2.01313 -1.78535
-5.13768 -11.5178 -2.63366
-3.15751 7.9728 -4.33786
0.00601106 -11.3513 3.87175
11.1349 -7.37825 1.03059
12.4582 -2.84182 -2.3793
-2.1344 -7.73849 4.20415
-6.00492 -7.9295 4.39298
0.000327437 -12.352 2.97504
-2.24344 5.6693 -3.42614
-6.89724 -4.25191 -4.22549
-0.493654 10.1194 -4.36267
11.6548 4.28563 -2.89409
7.48505 -11.0621 -1.03466
9.10198 -3.76478 -4.40484
-4.10918 3.35926 -3.04032
11.0419 -6.62947 -2.20756
2.21747 0.678197 -1.76346
-12.7741 -4.17199 -0.646013
0.923695 0.223211 1.46081
9.99074 4.78807 4.0301
4.77912 -5.54213 -3.9625
2.23631 -2.11492 -2.0254
0.00405384 9.47189 -4.4263
-4.28957 6.18302 4.0399
-2.84753 5.43619 3.44515
-0.408941 -4.58419 2.6952
-2.14526 10.4531 4.21207
-12.413 -2.89418 -2.43115
-4.56989 -8.70266 -4.407
2.38055 -3.4675 -2.50754
-11.5747 -6.04358 -1.86094
7.24622 10.0359 2.94274
6.24689 -5.86277 4.33627
-8.50915 -5.71308 4.3379
0.372826 7.18822 3.91531
-7.3423 6.91846 -4.37064
7.01501 -6.32287 4.42639
2.23198 0.674479 1.76737
7.96368 -2.87297 4.31549
-5.52079 -4.08338 3.77791
4.48512 -0.944028 2.68606
-2.70895 12.8534 -1.68484
9.94159 -8.10199 -2.30179
11.9151 3.37536 2.93606
3.84386 -2.44116 -2.6717
-8.61391 7.09901 -3.98491
-4.81438 10.536 3.71081
-7.401 -6.89755 4.36541
-13.0368 3.26256 -0.641604
6.44873 8.49252 4.21483
2.40518 -6.46356 3.79068
9.13512 -8.10089 -3.13903
10.2589 -0.460466 4.33322
-3.56748 9.96538 4.24272
8.15508 10.4471 -1.37803
7.48306 11.0639 1.03329
-0.878179 -2.51021 1.8736
9.61586 -7.20106 -3.34265
-8.29222 -0.961778 4.28875
3.56465 -9.96329 -4.2437
8.39335 -8.48918 -3.41455
4.6063 4.24966 -3.50688
-4.37594 12.745 -0.348026
-8.12671 7.97544 3.84898
6.9389 -7.7243 -4.3043
-9.81986 7.66651 -2.84261
-12.0605 5.92711 -0.645329
6.94514 -7.7232 4.30339
-5.98332 -11.9404 1.03784
-9.34906 -6.70361 -3.76882
6.65311 -5.05642 -4.29079
-2.70168 -13.0818 -1.02934
5.98118 -11.9416 1.03763
3.56743 -7.31095 -4.23442
12.3242 -1.43587 -2.90674
10.8617 0.898414 -4.11816
6.0697 -2.386 3.62489
7.61938 8.79785 3.66917
12.7 0.97433 2.44481
5.04461 8.04732 -4.42606
7.19755 3.3299 4.17528
-0.923952 -13.4449 0.331733
-6.94349 7.72325 4.30368
12.4499 -5.05927 -0.642902
7.40095 6.89782 -4.36538
5.26502 -2.7179 -3.34339
-5.10778 8.05654 4.42526
-10.6274 8.30957 -0.00106709
-10.0088 8.82394 1.08542
-11.0439 6.62616 -2.2076
6.69634 11.1164 -2.02459
-3.9355 -10.5706 -3.91656
-7.61976 -8.79823 -3.66876
0.377165 -3.22915 -2.09302
-0.771307 8.07048 -4.22681
7.02967 -4.18882 4.24738
1.28292 -7.47732 -4.06178
-0.00109583 11.3509 -3.87199
-9.4818 1.87135 4.42018
0.391538 7.1651 -3.90648
-7.19952 3.33751 4.17679
-12.0637 -5.58278 1.25732
-10.0811 2.32972 4.31402
7.43964 -10.8156 -1.70495
-5.37564 -9.89376 -3.92839
1.29046 -0.748327 -1.55207
-7.53552 4.69234 -4.38744
-1.64342 11.0334 3.98887
0.000842414 13.2836 -1.28635
0.87187 9.43817 4.42625
2.61218 9.85877 4.34899
1.67388 -0.111652 -1.59223
-9.28166 8.5607 2.61194
4.1035 4.92007 -3.57199
6.44866 -7.17386 4.42121
-1.68376 0.0656966 -1.59392
-1.65503 -11.0329 -3.98818
0.878311 -6.51823 -3.65002
10.7442 1.87082 -4.11494
11.9025 0.952831 -3.41206
-6.50105 -7.15618 -4.41998
-4.47864 -9.9611 -4.10772
-5.19206 12.385 -0.698784
-3.59539 -8.69479 -4.4262
13.2721 0.919339 -1.22142
-10.5768 8.26042 0.748306
-3.54922 12.1129 2.61854
-6.60874 2.88917 -3.92119
8.19163 -6.58961 4.26619
4.5498 -7.46294 -4.3673
-6.24137 9.77309 3.70164
-7.82746 3.76639 -4.35828
10.2856 6.71477 3.0559
-8.36405 0.00698726 4.29257
-9.30646 2.76118 -4.41749
-6.69002 -2.83442 3.9421
4.57462 0.0556222 -2.682
11.6926 2.80373 -3.33218
7.01561 -0.963538 -3.8682
11.9322 -0.980448 -3.38208
10.289 6.71374 -3.05326
4.47089 -9.95693 4.11094
-8.199 10.6368 0.694414
-0.105585 -2.64878 -1.8707
-2.39809 -4.25388 -2.83154
2.4289 4.221 -2.82504
-2.6159 -9.85738 4.34906
-3.6083 -8.69561 4.42627
5.60729 6.03413 4.26151
6.15994 -4.54795 4.08631
2.78455 -4.53012 -3.04524
8.18921 -6.59429 -4.26586
-6.98988 -0.993278 -3.85939
-3.40025 3.14962 2.71082
1.82726 13.3072 -0.682646
0.121903 2.62342 1.86233
6.23486 9.76452 -3.70968
12.4308 -4.69421 1.27379
0.970346 -1.50634 -1.61908
6.6059 -2.89226 3.92066
9.59611 -0.935059 4.42145
-0.869114 9.44138 -4.42622
7.84512 9.28608 -3.19673
-10.5536 -7.5905 -1.98037
1.30952 -5.20505 3.06982
-6.23626 9.7668 -3.70769
-10.5785 -8.25917 -0.74551
-8.06347 10.1526 -2.04853
-12.3629 -5.39918 -0.000383633
-11.6264 -6.4291 1.28026
-10.5768 -8.26099 0.74658
-4.47672 9.96257 4.10746
2.76014 -4.55405 3.04906
0.989429 -3.87646 -2.41334
4.33589 -4.92374 3.64258
5.19218 11.8952 2.02156
-10.999 4.71862 -3.38585
-9.70699 5.77241 -3.90787
0.967817 -1.46885 1.6112
-11.9322 0.973474 -3.38261
4.59655 7.44727 -4.36908
-6.15979 4.54658 -4.086
10.9951 -4.71878 -3.38923
-0.899652 6.49452 3.64068
-8.19958 -10.6365 0.693835
4.21044 -1.71268 -2.66784
-1.67605 0.0982524 1.59253
12.3628 -5.39928 0.000652078
8.36287 -0.00596923 4.2923
-7.83454 9.29765 -3.19457
-4.54886 7.46659 4.36774
-5.1929 -12.3859 0.691949
-1.81465 13.3102 0.67493
-4.19134 1.75757 -2.6676
-6.7421 -11.4135 -1.36958
10.995 -4.71871 3.38933
-3.54384 -13.0166 -0.00116631
5.18318 -11.9034 -2.01392
-2.77356 4.57219 3.06014
-5.1924 -11.895 -2.02172
9.21696 2.84107 -4.42126
8.06251 -10.1531 -2.04884
2.58842 -7.24526 4.09891
-3.57257 8.67797 -4.42591
7.30193 -8.27378 4.05266
5.19254 12.3862 -0.691608
-13.2734 -0.919824 1.21718
10.5772 8.26087 -0.745332
3.37963 -3.14813 2.70305
5.1924 -12.3848 0.698407
0.875582 9.43968 -4.42625
7.71701 3.8117 -4.34395
8.2398 6.5779 -4.25647
3.59045 -8.69342 -4.42618
11.6918 2.80255 3.33319
8.79432 -4.77499 4.3842
-5.18194 11.9038 2.01404
-11.6277 6.42667 1.28052
10.7426 1.86888 4.11581
11.5821 -2.91434 -3.4097
-1.8342 -12.8743 1.97126
6.00958 4.61429 4.05828
8.06222 -10.1529 2.04952
6.68155 2.83958 3.93984
9.51578 -9.56249 0.000554258
1.81435 -13.3093 0.680268
10.5514 -7.5924 1.98173
4.1113 1.74182 2.62944
0.951216 1.30892 1.57888
-9.30677 2.75549 4.41758
-0.980746 1.49792 1.61874
-0.00125621 -11.9011 3.44846
-4.59187 -7.45346 -4.36954
-7.84586 -9.28339 -3.19838
-8.2392 -6.57996 4.25621
-4.48003 -9.96545 4.10561
-9.51607 9.5622 -2.90738e-05
7.02026 -0.957115 3.86974
-0.944842 -1.32312 -1.5806
-10.7467 -1.86931 -4.11396
-0.137584 -2.60354 1.85591
8.36489 -0.0071999 -4.29276
-5.49463 -1.84727 3.28099
-4.11319 -1.74211 2.63033
3.56208 3.23138 -2.79547
3.59914 8.69232 4.4262
2.11667 5.62111 -3.38266
-2.65915 -1.38055 1.9944
-0.846439 -3.99386 2.45064
-12.749 -0.0135392 2.42621
13.272 0.920784 1.22143
0.883954 -6.50388 3.64392
-3.54907 12.1145 -2.61643
-10.992 4.71898 3.39182
-1.8149 13.3093 -0.679913
-7.02341 0.959148 -3.87113
6.73966 -11.4166 -1.36525
12.9814 -2.85617 -1.26058
5.19187 -12.3864 -0.691486
5.04269 -11.0491 3.20837
9.51533 9.56292 0.000239299
2.66674 7.24318 4.10726
0.00306689 7.88326 4.16069
-11.9017 -0.948737 -3.41314
5.55168 -1.83976 -3.30622
10.5527 7.59192 -1.98029
-12.9808 -2.84242 -1.27176
6.15082 -4.55618 -4.0855
0.940879 6.59554 3.68827
-0.855034 -3.98285 -2.44651
1.83366 -12.8779 -1.96436
-4.56994 -0.0346258 2.67965
-10.5519 7.59214 1.9813
0.866539 -9.4511 4.42613
1.81843 12.1114 -3.0973
2.5956 -7.27469 -4.10906
5.18191 -11.9003 2.02039
0.0256862 7.88088 -4.15994
1.27177 -5.22516 -3.07498
3.61123 8.69748 -4.42627
2.6767 7.25928 -4.11346
-6.67774 -2.84395 -3.93912
10.553 -7.59206 -1.97965
-2.58838 7.22352 -4.09193
11.0299 4.67594 3.37476
8.19953 -10.6365 -0.69397
-10.2886 -6.71275 3.05426
-4.59571 -7.45133 4.36956
-12.4333 4.69049 1.2708
8.79362 -4.77706 -4.38413
11.628 -6.42792 -1.27764
12.1706 -3.82874 2.41082
8.06465 10.1515 -2.04868
10.7664 -1.93612 -4.09958
9.28373 8.55739 -2.61295
10.2718 -6.72998 3.05959
10.5781 8.25929 0.74687
-1.64916 11.0257 -3.99262
-10.2712 6.7315 -3.05921
-11.6273 -6.42946 -1.27723
-8.06671 -10.149 -2.05
-8.23577 -6.58116 -4.25683
-2.60556 9.86066 4.34894
5.30443 -6.1013 4.22052
-12.1702 3.82891 2.41154
-8.36386 0.00352565 -4.29252
-11.5811 2.91422 -3.41062
-10.769 1.93133 -4.09877
-5.55074 1.83023 -3.30432
3.5406 -13.0175 0.00117513
-8.99086 -4.66774 4.36286
2.60808 -9.85507 4.34995
-1.22206 5.20039 3.05736
-6.74042 11.4144 -1.3696
-5.48561 -1.84084 -3.27583
-6.50633 -7.15558 4.41979
9.64212 0.963528 4.41864
7.84483 9.28332 3.19915
6.98659 0.989695 3.85786
-2.59526 7.2775 4.1099
5.19274 12.3848 0.697867
1.83409 12.8762 1.96745
8.23848 6.58027 4.25633
12.9812 2.84743 -1.26665
13.2332 -0.988356 1.32793
-5.19262 -12.3848 -0.697889
-4.57685 -0.0128998 -2.68291
7.83686 -9.29688 -3.19361
12.4372 4.68864 -1.26122
11.5803 -2.91648 3.41088
-12.1861 -3.81122 2.39557
9.70298 -5.77519 3.9091
12.9798 -2.85703 1.26475
-1.81925 -12.1097 3.09895
-0.00049177 -13.2865 -1.27726
9.28214 -8.56068 -2.61142
-6.01142 -4.61119 -4.05814
4.55023 -7.45858 4.36673
-0.000514942 -13.2839 1.28539
-13.2352 0.981982 1.32336
8.06626 10.1489 2.05082
8.19984 10.6365 -0.692897
-6.45094 7.1741 -4.42111
-4.46902 9.95551 -4.1119
-9.213 -2.84438 4.4214
6.44628 -7.17473 -4.42126
-6.98918 -0.98472 3.85862
-8.79698 4.77581 -4.38377
6.24053 -9.77148 -3.70301
-2.76034 4.53005 -3.03898
5.19163 11.8985 -2.01605
-6.44498 7.17454 4.4213
6.7423 11.4136 1.36903
-3.54878 -12.1153 2.6154
-8.06186 10.1532 2.04948
8.99218 4.66567 4.36282
-5.55245 1.83628 3.30602
0.931584 -3.84202 2.39195
-4.20722 1.74082 2.67154
1.64466 -11.0351 -3.98786
-0.00117802 -11.9097 -3.44069
-6.60859 2.89517 3.9221
-7.01762 0.95957 3.8688
-12.98 2.85504 -1.26532
3.53642 3.21091 2.77954
-10.5513 7.59302 -1.98116
9.28046 -8.56061 2.61329
-9.27967 8.56092 -2.61384
-0.872194 6.5201 -3.65047
-1.65215 -11.0244 3.99312
8.1995 -10.6364 0.694406
0.00193427 11.9082 3.44198
1.82104 12.1123 3.09571
2.69993 -1.52188 -2.03358
-7.84474 -9.28517 3.19774
-6.23683 -9.76526 -3.70843
-1.81678 12.1115 -3.09737
6.50782 7.158 -4.41962
-11.0286 -4.6801 -3.3743
5.55238 -1.8322 3.30538
6.69382 2.8351 -3.94358
-9.69974 5.7779 3.90996
-2.61151 -9.86177 -4.34839
4.59521 7.45531 4.37006
-11.8995 -0.950513 3.41508
-0.873329 -9.44575 -4.42618
-11.5836 2.91475 3.40829
-1.35967 5.21441 -3.08042
-0.958404 -6.58414 3.68436
-12.3628 5.39935 0.000398333
-10.5777 8.2601 -0.745822
0.852221 3.99792 -2.45299
-1.83402 12.8773 1.96537
-1.81753 12.1153 3.09302
-12.4373 -4.6878 1.26194
11.03 4.67818 -3.37382
12.186 3.81125 -2.39563
7.3127 8.27129 4.04998
12.7481 0.00941544 -2.42779
5.50303 1.85512 -3.2861
-11.6906 -2.80462 -3.33386
-12.1849 -3.81146 -2.39718
-3.52987 -3.21518 -2.77858
11.6261 6.43094 -1.27824
-2.18232 -5.63712 -3.40111
7.82542 -3.77261 -4.35842
11.8977 0.949008 3.41686
3.54871 12.1157 -2.6149
-2.66702 -7.2491 -4.10916
-2.67182 -7.25179 4.11055
9.60442 -0.934135 -4.42102
0.135838 2.59982 -1.85462
5.29486 -6.10426 -4.21939
4.48094 9.96718 -4.1047
1.83456 12.8753 -1.96936
-4.33985 4.91321 -3.6402
-5.31178 6.09991 -4.22158
9.21346 2.84438 4.4214
-7.82921 3.76762 4.35864
-12.9803 2.85902 1.26169
-9.63943 -0.963072 -4.41881
-8.79468 4.77346 4.38425
7.31861 8.27218 -4.04765
9.75338 5.72371 3.89849
11.6269 -6.42914 1.27873
-1.82107 -12.1142 -3.09353
9.70301 -5.77716 -3.90847
-2.65846 -1.38984 -1.99578
-9.59947 0.932695 4.42128
-3.55476 -3.2189 2.78875
-10.7696 1.93549 4.09812
-5.88528e-05 13.2865 1.27745
-13.363 1.84958 0.00306742
-6.01435 -4.6147 4.05972
1.8266 13.3076 0.680544
-0.0186487 -7.87754 4.15889
10.5768 -8.26066 0.747725
-5.04314 11.0486 -3.20863
3.57571 -8.682 4.42598
3.54982 -12.1142 -2.61648
7.70887 3.80813 4.34227
2.40607 4.24502 2.8297
12.982 2.83934 1.27015
-11.0296 -4.6751 3.37529
5.04511 -11.054 -3.20258
0.84523 3.98602 2.44699
-4.10762 -1.73732 -2.62699
-8.19931 -10.6363 -0.695393
-3.55025 -12.1135 -2.61727
-1.82713 -13.308 -0.678185
13.3631 1.84897 -0.00260678
5.04475 11.0546 3.2021
9.6438 0.959364 -4.41854
-1.82713 -13.3068 0.684917
6.73994 -11.4159 1.36654
-4.5475 7.45363 -4.36582
3.54353 13.0168 0.00210732
1.64971 11.0255 -3.99271
5.58576 6.04402 -4.25962
9.30797 -2.7565 4.41749
-11.6266 6.43145 -1.27625
10.5531 7.59024 1.98151
7.30589 -8.2741 -4.0512
-5.19199 -11.8981 2.0164
-5.04245 -11.0593 3.1986
-7.83557 9.29794 3.19363
-6.23422 -9.7663 3.70882
-3.3787 3.13766 -2.6993
-4.32833 4.9393 3.6456
-8.20046 10.6358 -0.693811
0.867127 -9.47215 -4.42584
-0.960876 -1.29058 1.5769
-12.7512 -0.00763776 -2.42278
-13.2342 0.9924 -1.32398
-9.28488 -8.55679 -2.61233
-9.28409 -8.55737 2.61262
4.4779 9.96046 4.10813
8.98754 4.67021 -4.36322
-2.61074 9.85555 -4.34971
4.11125 1.74132 -2.62932
-11.9362 0.980479 3.37826
-10.7432 -1.86948 4.11552
-4.09291 -4.90997 3.56527
-0.950647 1.45069 -1.60538
2.60666 -9.86309 -4.34839
6.23578 9.76694 3.70781
-2.41886 -4.22602 2.8247
-7.30529 8.2735 4.05163
9.30163 -2.76134 -4.4178
6.61841 -2.895 -3.92563
-7.31143 -8.2721 -4.0501
0.970202 6.58116 -3.68381
6.50393 7.15351 4.41998
-0.919747 3.8441 -2.39161
13.3631 -1.84891 0.00295399
-1.83408 12.875 -1.96981
-12.4363 -4.68792 -1.26458
-10.2752 6.72715 3.05813
-3.54074 13.0175 0.00114578
-12.9815 -2.84472 1.26775
-6.73963 11.4176 1.36274
-9.51521 -9.56306 -0.000289951
-11.6946 -2.80058 3.33098
-9.5977 0.937574 -4.42135
-10.5526 -7.59139 1.98098
-9.64562 -0.962198 4.41842
-7.71101 -3.80957 4.34275
-3.58668 8.69352 4.42618
6.99293 0.9816 -3.85997
-4.08386 -4.89756 -3.55817
3.54895 -12.1127 2.6189
2.61804 9.85802 -4.34882
1.8187 -12.116 -3.0919
-0.00111122 -7.89485 -4.16429
2.65642 1.37779 -1.99301
-0.945223 -6.59551 -3.68854
5.04187 11.0594 -3.19874
3.42924 -3.13519 -2.71642
0.972439 1.28702 -1.57778
-0.87277 -9.4351 4.42627
7.82942 -3.76622 4.35857
2.1719 5.63681 3.39917
7.83446 -9.29796 3.19435
