-0.364791 2.46565 0.904103
4.0172e-10 2.98419 -0.291736
0.201712 2.10078 0.994599
0.58705 2.20122 0.980081
0.385801 -1.43456e-07 -0.359831
-2.07969 1.92223 0.594816
0.965161 1.07128 -0.803726
1.438 -1.60288 0.994143
-0.385801 -1.4828e-08 -0.359831
-0.364791 -2.46565 -0.904103
0.199395 -1.47623 -0.825463
2.41417 0.432286 -0.923858
2.67675 0.218348 -0.764514
-1.438 -1.60288 -0.994143
-0.997221 -2.23272 -0.92716
-1.17175 2.78093 -0.157386
-0.802557 -1.93432 -0.994229
2.97792 0.215424 -0.287028
-2.37229 1.86128 0.170499
-0.788657 2.72277 0.590919
-1.4917 0.630432 -0.880617
1.82873 -1.47686 0.962319
1.01539 -1.65588 -0.977681
-1.39131 2.1934 0.838046
-1.73796 0.844629 -0.975814
2.30269 1.51238 0.692826
-1.88135 1.6619e-08 0.965034
-2.07739 0.632447 -0.993305
-1.4917 -0.630432 0.880617
1.0306 8.10224e-08 -0.603905
2.60924 0.649758 -0.761407
1.57892 -0.214094 -0.870087
2.67675 -0.218348 -0.764514
2.30269 1.51238 -0.692826
0.997221 -2.23272 0.92716
-1.84358 2.38863 0.159512
-8.27428e-08 -0.601512 -0.422366
-0.597888 -0.957613 -0.651781
0.597888 0.957613 -0.651781
-0.58705 -2.20122 0.980081
-0.802557 -1.93432 0.994229
1.20669 1.34886 0.946454
1.36458 -1.00838 0.909872
0.597888 -0.957613 -0.651781
1.82873 -1.47686 -0.962319
-1.57892 -0.214094 -0.870087
-0.779097 0.685141 0.607228
0.409288 2.99058 -0.153107
3.16967e-08 0.601512 0.422366
1.39131 2.1934 -0.838046
2.792 -1.05882 0.286006
0.203823 -0.311672 -0.356762
1.4917 -0.630432 0.880617
2.16086 -0.215417 0.993304
-0.201712 2.10078 -0.994599
1.75365 2.08663 -0.724757
-2.36684 -1.70778 -0.450248
0.403798 -1.21285 0.725385
-1.39131 2.1934 -0.838046
-2.37229 -1.86128 -0.170499
-1.80802 2.28006 -0.467162
-2.7747 -1.22111 -1.37795e-08
-2.60917 -1.45122 0.28735
-2.37229 -1.86128 0.170499
-0.997221 2.23272 0.92716
0.597888 -0.957613 0.651781
0.20673 -0.890316 -0.549132
0.965161 -1.07128 0.803726
1.16105 2.67373 0.457518
-2.47019 1.06437 -0.76064
-2.17499 1.29324 -0.882677
0.203823 -0.311672 0.356762
-2.67675 0.218348 -0.764514
1.01539 1.65588 -0.977681
-1.36458 1.00838 -0.909872
2.47019 -1.06437 -0.76064
-0.199395 1.47623 0.825463
-1.84358 -2.38863 0.159512
0.931511 -0.370362 -0.590433
-0.385801 -5.98327e-10 0.359831
2.7747 -1.22111 9.15113e-09
1.88135 7.99181e-09 0.965034
-1.75365 2.08663 -0.724757
-1.01539 1.65588 0.977681
-1.17175 -2.78093 0.157386
-0.409288 2.99058 0.153107
-0.931511 0.370362 -0.590433
-1.51474 -2.56329 -0.312011
2.47019 -1.06437 0.76064
-0.80049 -2.92392 5.25953e-09
1.16105 -2.67373 -0.457518
-0.597888 0.957613 0.651781
-1.16105 -2.67373 -0.457518
2.07739 0.632447 -0.993305
1.80802 -2.28006 -0.467162
0.594359 -1.59387 0.911423
-0.802557 1.93432 -0.994229
1.6297 -1.85642 0.915443
1.17175 2.78093 -0.157386
-2.97792 -0.215424 0.287028
2.37229 1.86128 -0.170499
0.779097 -0.685141 0.607228
1.17175 -2.78093 0.157386
0.201712 2.10078 -0.994599
1.73796 0.844629 -0.975814
1.82873 1.47686 -0.962319
0.802557 -1.93432 -0.994229
2.60924 0.649758 0.761407
1.97827 -1.06526 0.985492
-1.16105 2.67373 0.457518
-2.60917 1.45122 0.28735
2.41417 0.432286 0.923858
2.60924 -0.649758 -0.761407
-0.408019 -2.89297 0.444366
1.36458 1.00838 0.909872
1.80802 -2.28006 0.467162
1.4917 0.630432 0.880617
2.13587 -2.15132 1.55083e-09
0.409288 -2.99058 0.153107
2.36684 -1.70778 0.450248
0.931511 0.370362 0.590433
0.203823 0.311672 0.356762
-2.07739 0.632447 0.993305
-0.203823 0.311672 0.356762
6.54272e-09 -2.66057 0.787275
-1.01539 -1.65588 -0.977681
-1.75365 -2.08663 -0.724757
-1.82873 -1.47686 0.962319
-0.997221 -2.23272 0.92716
-2.13587 2.15132 -1.56119e-09
1.57892 -0.214094 0.870087
-0.203823 -0.311672 -0.356762
-2.41417 -0.432286 -0.923858
-3.16247e-08 -0.601512 0.422366
1.88135 1.27018e-08 -0.965034
-1.24754 -0.396939 0.740478
-0.931511 -0.370362 0.590433
0.779097 0.685141 -0.607228
0.802557 1.93432 0.994229
0.403798 1.21285 -0.725385
-0.589948 -0.333284 0.449788
-0.20673 -0.890316 0.549132
-2.86465 1.21674e-09 0.545641
2.97792 0.215424 0.287028
0.199395 -1.47623 0.825463
-0.788657 2.72277 -0.590919
-2.47019 1.06437 0.76064
-0.409288 2.99058 -0.153107
-1.57892 0.214094 -0.870087
1.51474 -2.56329 -0.312011
2.91597 -0.64315 -0.285919
1.17175 -2.78093 -0.157386
1.12196 -2.48396 0.724853
2.13587 2.15132 -1.4738e-09
0.594359 1.59387 0.911423
-2.5367e-08 1.77402 0.935759
-2.67675 -0.218348 -0.764514
1.24754 -0.396939 -0.740478
2.36684 1.70778 -0.450248
-2.91597 -0.64315 -0.285919
1.36458 -1.00838 -0.909872
0.199395 1.47623 0.825463
-0.20673 -0.890316 -0.549132
0.408019 -2.89297 -0.444366
-1.0306 -2.7934e-09 0.603905
-2.36684 1.70778 0.450248
0.201712 -2.10078 0.994599
0.400004 2.71806 -0.701368
0.594359 -1.59387 -0.911423
1.16105 -2.67373 0.457518
-5.77979e-08 1.77402 -0.935759
0.403798 -1.21285 -0.725385
0.802557 1.93432 -0.994229
0.594359 1.59387 -0.911423
-1.4917 -0.630432 -0.880617
2.36684 -1.70778 -0.450248
-0.594359 1.59387 -0.911423
2.47019 1.06437 0.76064
1.84358 -2.38863 -0.159512
-2.30269 -1.51238 0.692826
-1.01539 -1.65588 0.977681
-2.792 1.05882 0.286006
1.97827 -1.06526 -0.985492
2.60917 -1.45122 -0.28735
2.73419 -0.862443 0.541919
1.80802 2.28006 -0.467162
2.41417 -0.432286 -0.923858
2.07969 1.92223 -0.594816
2.30269 -1.51238 0.692826
2.37229 1.86128 0.170499
-0.364791 2.46565 -0.904103
-2.30269 1.51238 -0.692826
-2.60917 -1.45122 -0.28735
-1.80802 -2.28006 -0.467162
-1.82873 -1.47686 -0.962319
-0.58705 2.20122 0.980081
1.20669 -1.34886 0.946454
-2.73419 0.862443 0.541919
-1.88135 6.57084e-08 -0.965034
-2.60924 0.649758 -0.761407
-2.41417 0.432286 -0.923858
-1.24754 0.396941 -0.740478
0.80049 -2.92392 6.13375e-09
-1.97827 -1.06526 0.985492
0.58705 -2.20122 0.980081
-0.403798 1.21285 0.725385
-1.51474 2.56329 -0.312011
-1.24754 -0.396939 -0.740478
-1.438 -1.60288 0.994143
2.16086 0.215417 0.993304
1.75365 2.08663 0.724757
1.57892 0.214094 0.870087
-0.594359 1.59387 0.911423
1.17175 2.78093 0.157386
0.408019 2.89297 0.444366
1.82873 1.47686 0.962319
2.91597 0.64315 -0.285919
2.97792 -0.215424 0.287028
-1.17175 -2.78093 -0.157386
-1.0306 -4.18739e-08 -0.603905
1.75365 -2.08663 -0.724757
2.792 1.05882 -0.286006
2.60924 -0.649758 0.761407
-2.73419 -0.862443 0.541919
2.17499 -1.29324 0.882677
2.91597 -0.64315 0.285919
-0.400004 -2.71806 0.701368
-3.74794e-10 -2.98419 -0.291736
2.07969 -1.92223 -0.594816
-1.36458 -1.00838 -0.909872
1.01539 -1.65588 0.977681
-4.44205e-09 -2.98419 0.291736
-2.97792 0.215424 0.287028
1.80802 2.28006 0.467162
1.84358 2.38863 -0.159512
-1.438 1.60288 -0.994143
-0.997221 2.23272 -0.92716
-2.07739 -0.632447 0.993305
1.438 -1.60288 -0.994143
-1.57892 -0.214094 0.870087
-1.97827 1.06526 -0.985492
1.39131 -2.1934 -0.838046
-0.597888 0.957613 -0.651781
1.16105 2.67373 -0.457518
-1.438 1.60288 0.994143
1.51474 2.56329 0.312011
-0.788657 -2.72277 0.590919
-1.80802 2.28006 0.467162
1.97827 1.06526 0.985492
-1.24754 0.396939 0.740478
0.20673 -0.890316 0.549132
-0.931511 0.370362 0.590433
0.364791 -2.46565 -0.904103
-2.75181e-09 -2.66057 -0.787275
-1.4917 0.630432 0.880617
-1.57892 0.214094 0.870087
-2.91597 0.64315 -0.285919
0.779097 0.685141 0.607228
-2.36684 1.70778 -0.450248
2.07969 -1.92223 0.594816
-2.07969 1.92223 -0.594816
-0.199395 1.47623 -0.825463
-0.364791 -2.46565 0.904103
1.84358 -2.38863 0.159512
-6.55347e-09 2.66057 0.787275
0.400004 2.71806 0.701368
0.589948 -0.333284 -0.449788
-1.75365 -2.08663 0.724757
-1.39131 -2.1934 -0.838046
-0.400004 2.71806 -0.701368
1.438 1.60288 -0.994143
-2.47019 -1.06437 -0.76064
1.24754 -0.396939 0.740478
1.4917 0.630432 -0.880617
-2.17499 1.29324 0.882677
-0.58705 -2.20122 -0.980081
1.01539 1.65588 0.977681
-2.67675 -0.218348 0.764514
-0.201712 -2.10078 -0.994599
-2.60924 0.649758 0.761407
-0.403798 1.21285 -0.725385
-0.199395 -1.47623 0.825463
-2.7747 1.22111 1.39033e-08
-2.37229 1.86128 -0.170499
0.20673 0.890316 -0.549132
-0.408019 2.89297 0.444366
-0.400004 2.71806 0.701368
-2.792 -1.05882 0.286006
2.47019 1.06437 -0.76064
2.73419 0.862443 -0.541919
1.6297 1.85642 0.915443
2.86465 -9.38093e-09 -0.545641
1.24754 0.396941 -0.740478
-2.60924 -0.649758 -0.761407
-2.73419 -0.862443 -0.541919
-0.779097 -0.685141 -0.607228
2.60917 1.45122 -0.28735
-0.403798 -1.21285 -0.725385
1.73796 -0.844629 -0.975814
2.67675 0.218348 0.764514
0.788657 2.72277 -0.590919
-0.594359 -1.59387 -0.911423
-0.594359 -1.59387 0.911423
2.16086 -0.215417 -0.993304
8.24247e-08 0.601512 -0.422366
1.20669 -1.34886 -0.946454
0.997221 2.23272 -0.92716
0.408019 2.89297 -0.444366
-0.96516 1.07128 -0.803726
-1.20669 1.34886 -0.946454
2.07739 0.632447 0.993305
-1.73796 0.844629 0.975814
-2.91597 0.64315 0.285919
-2.16086 -0.215417 -0.993304
-1.97827 1.06526 0.985492
1.6297 1.85642 -0.915443
2.17499 1.29324 0.882677
2.60917 -1.45122 0.28735
-0.400004 -2.71806 -0.701368
2.17499 -1.29324 -0.882677
-0.589948 -0.333284 -0.449788
-2.16086 0.215417 0.993304
-0.779097 -0.685141 0.607228
-2.41417 0.432286 0.923858
4.35944e-09 2.98419 0.291736
-3.00263 0.417566 3.2064e-09
-1.36458 -1.00838 0.909872
0.409288 2.99058 0.153107
2.58704e-08 -1.77402 0.935759
2.37229 -1.86128 0.170499
-1.12196 2.48396 -0.724853
0.802557 -1.93432 0.994229
0.788657 -2.72277 -0.590919
1.73796 0.844629 0.975814
0.597888 0.957613 0.651781
2.91597 0.64315 0.285919
-2.47019 -1.06437 0.76064
1.12196 -2.48396 -0.724853
0.20673 0.890316 0.549132
-0.931511 -0.370362 -0.590433
-1.84358 -2.38863 -0.159512
-0.788657 -2.72277 -0.590919
-0.409288 -2.99058 -0.153107
3.00263 0.417566 -1.77881e-09
1.12196 2.48396 0.724853
2.16086 0.215417 -0.993304
-0.409288 -2.99058 0.153107
1.51474 -2.56329 0.312011
-1.01539 1.65588 -0.977681
0.80049 2.92392 -6.33257e-09
0.364791 2.46565 -0.904103
1.20669 1.34886 -0.946454
2.07739 -0.632447 0.993305
-2.60917 1.45122 -0.28735
2.36684 1.70778 0.450248
1.6297 -1.85642 -0.915443
-1.16105 -2.67373 0.457518
-1.12196 -2.48396 0.724853
-1.75365 2.08663 0.724757
-1.39131 -2.1934 0.838046
-0.779097 0.685141 -0.607228
-0.965161 1.07128 0.803726
-1.84358 2.38863 -0.159512
0.201712 -2.10078 -0.994599
-0.203823 -0.311672 0.356762
-2.86465 1.34503e-08 -0.545641
-2.97792 0.215424 -0.287028
-2.07969 -1.92223 -0.594816
-2.07969 -1.92223 0.594816
0.997221 2.23272 0.92716
1.97827 1.06526 -0.985492
-0.58705 2.20122 -0.980081
0.931511 0.370362 -0.590433
-2.67675 0.218348 0.764514
-2.41417 -0.432286 0.923858
-0.965161 -1.07128 0.803726
-0.203823 0.311672 -0.356762
0.58705 -2.20122 -0.980081
1.39131 2.1934 0.838046
-0.597888 -0.957613 0.651781
-1.6297 1.85642 0.915443
2.07739 -0.632447 -0.993305
1.4917 -0.630432 -0.880617
-1.6297 -1.85642 -0.915443
0.199395 1.47623 -0.825463
1.438 1.60288 0.994143
-0.20673 0.890315 -0.549132
3.00263 -0.417566 1.77076e-09
-0.408019 2.89297 -0.444366
-2.792 -1.05882 -0.286006
-2.30269 1.51238 0.692826
-0.80049 2.92392 -5.02619e-09
-2.91597 -0.64315 0.285919
-1.51474 2.56329 0.312011
-2.13587 -2.15132 1.45544e-09
-2.60924 -0.649758 0.761407
-2.16086 0.215417 -0.993304
-2.36684 -1.70778 0.450248
-2.16086 -0.215417 0.993304
-1.73796 -0.844629 0.975814
-0.802557 1.93432 0.994229
1.57892 0.214094 -0.870087
-0.965161 -1.07128 -0.803726
0.788657 -2.72277 0.590919
0.58705 2.20122 -0.980081
0.400004 -2.71806 -0.701368
5.73244e-08 -1.77402 -0.935759
0.589948 0.333284 -0.449788
-0.199395 -1.47623 -0.825463
1.12196 2.48396 -0.724853
0.779097 -0.685141 -0.607228
0.203823 0.311672 -0.356762
-0.201712 -2.10078 0.994599
1.73796 -0.844629 0.975814
0.403798 1.21285 0.725385
1.75365 -2.08663 0.724757
-0.589948 0.333284 -0.449788
-2.07739 -0.632447 -0.993305
-2.17499 -1.29324 0.882677
-1.36458 1.00838 0.909872
-1.82873 1.47686 0.962319
-1.6297 -1.85642 0.915443
-2.792 1.05882 -0.286006
2.17499 1.29324 -0.882677
2.792 -1.05882 -0.286006
-1.12196 -2.48396 -0.724853
1.51474 2.56329 -0.312011
2.30269 -1.51238 -0.692826
-2.97792 -0.215424 -0.287028
2.99528e-09 2.66057 -0.787275
0.364791 -2.46565 0.904103
0.400004 -2.71806 0.701368
-1.16105 2.67373 -0.457518
2.60917 1.45122 0.28735
-2.73419 0.862443 -0.541919
0.408019 -2.89297 0.444366
0.589948 -0.333284 0.449788
-1.80802 -2.28006 0.467162
0.931511 -0.370362 0.590433
-1.20669 -1.34886 0.946454
0.965161 -1.07128 -0.803726
1.0306 1.48098e-08 0.603905
-1.17175 2.78093 0.157386
-1.51474 -2.56329 0.312011
2.07969 1.92223 0.594816
-0.408019 -2.89297 -0.444366
2.792 1.05882 0.286006
2.86465 -1.66376e-09 0.545641
2.7747 1.22111 -9.21638e-09
-0.589948 0.333284 0.449788
2.67675 -0.218348 0.764514
-0.20673 0.890316 0.549132
2.37229 -1.86128 -0.170499
-1.97827 -1.06526 -0.985492
-0.201712 2.10078 0.994599
0.409288 -2.99058 -0.153107
1.39131 -2.1934 0.838046
-1.20669 -1.34886 -0.946454
-1.6297 1.85642 -0.915443
2.73419 0.862443 0.541919
-3.00263 -0.417566 -3.16531e-09
-1.82873 1.47686 -0.962319
1.36458 1.00838 -0.909872
0.997221 -2.23272 -0.92716
2.41417 -0.432286 0.923858
0.364791 2.46565 0.904103
2.73419 -0.862443 -0.541919
-1.12196 2.48396 0.724853
2.97792 -0.215424 -0.287028
-1.20669 1.34886 0.946454
1.84358 2.38863 0.159512
0.965161 1.07128 0.803726
0.589948 0.333284 0.449788
-0.403798 -1.21285 0.725385
1.24754 0.396941 0.740478
-1.73797 -0.844629 -0.975814
0.385801 -3.53483e-08 0.359831
-2.30269 -1.51238 -0.692826
-2.17499 -1.29324 -0.882677
0.788657 2.72277 0.590919
-5.06528e-09 2.38008 0.952887
-1.22935 -1.93516 -0.977128
0.790096 -1.34785 0.857175
2.83252 -0.435149 -0.543885
0.747145 2.49969 0.829448
2.20243e-08 1.15824 -0.666211
1.31414 5.17469e-08 -0.742893
-1.4774 2.41066 0.601335
-1.98902 -1.71125 0.817905
-4.17463e-09 -1.15824 0.666211
2.10904 -2.09557 0.324127
1.82792 -0.422995 -0.963833
2.30435 -0.84794 0.922545
-1.64219e-08 2.38008 -0.952887
1.67164e-10 -2.40122e-08 0.314066
-0.392491 -1.83405 -0.963678
-1.82792 -0.422995 0.963833
1.60955 1.23774 -0.990055
-2.83252 0.435149 -0.543885
0.392491 1.83405 0.963678
-0.798526 2.86947 0.308805
0.747145 2.49969 -0.829448
-1.60955 1.23774 0.990055
-0.407728 -0.622776 0.475865
-1.4774 2.41066 -0.601335
0.392491 -1.83405 0.963678
2.30435 0.84794 0.922545
-2.44999 1.45781e-08 0.925039
-1.60955 -1.23774 0.990055
1.12124 -0.755148 -0.761139
-0.798526 -2.86947 -0.308805
-0.790096 1.34785 -0.857175
-1.82792 0.422995 0.963833
1.12124 0.755148 -0.761139
2.91626 0.828 4.37822e-09
0.798526 2.86947 -0.308805
1.12124 0.755148 0.761139
-2.30435 0.84794 0.922545
1.98902 1.71125 0.817905
0.407728 0.622776 -0.475865
2.10904 -2.09557 -0.324127
2.56956 -1.27021 0.542912
-1.98902 -1.71125 -0.817905
2.56956 1.27021 -0.542912
1.82792 0.422995 -0.963833
1.98902 1.71125 -0.817905
-2.58264 -1.58747 -1.84812e-10
-2.10904 -2.09557 0.324127
-0.407728 0.622776 0.475865
1.4774 2.41066 -0.601335
-1.22935 1.93516 -0.977128
2.56956 -1.27021 -0.542912
0.798526 2.86947 0.308805
2.10904 2.09557 -0.324127
-1.60955 -1.23774 -0.990055
-0.747145 -2.49969 -0.829448
-0.747145 2.49969 0.829448
1.52404 -2.62057 2.71902e-09
-2.90042e-09 -3.03152 -5.14667e-09
-3.04149e-10 -9.3054e-08 -0.314066
-2.58264 1.58747 1.59892e-10
0.747145 -2.49969 0.829448
0.790096 1.34785 -0.857175
-0.407728 -0.622776 -0.475865
2.56956 1.27021 0.542912
2.58264 1.58747 6.93095e-09
0.798526 -2.86947 0.308805
-2.83252 -0.435149 -0.543885
-3.03152 1.46501e-09 -1.85484e-10
2.30435 -0.84794 -0.922545
1.52404 2.62057 -2.55808e-09
2.57306e-09 2.8563 0.558729
1.82792 0.422995 0.963833
-0.392491 -1.83405 0.963678
-1.4774 -2.41066 0.601335
-1.12124 -0.755148 0.76114
0.73208 2.18888e-08 0.470934
-2.10904 2.09557 0.324127
1.22935 -1.93516 -0.977128
1.22935 -1.93516 0.977128
1.4774 -2.41066 0.601335
-0.798526 2.86947 -0.308805
-1.52404 -2.62057 3.83002e-09
0.392491 1.83405 -0.963678
-1.12124 0.755148 0.761139
-1.98902 1.71125 0.817905
0.407728 0.622776 0.475865
0.790096 -1.34785 -0.857175
-0.407728 0.622776 -0.475865
1.22935 1.93516 0.977128
0.73208 -6.11982e-09 -0.470934
-1.82792 0.422995 -0.963833
2.83252 -0.435149 0.543885
-2.91626 0.828 -2.89778e-09
-2.10904 2.09557 -0.324127
1.98902 -1.71125 0.817905
-0.73208 -5.87885e-08 -0.470934
-1.82792 -0.422995 -0.963833
1.67731e-08 -2.38008 -0.952887
3.03152 -2.91049e-09 2.07172e-10
-2.30435 -0.84794 -0.922545
-1.12124 0.755148 -0.761139
-3.00364e-10 -2.8563 -0.558729
-1.60955 1.23774 -0.990055
-0.747145 2.49969 -0.829448
-2.30435 0.84794 -0.922545
-0.790096 -1.34785 -0.857175
2.10904 2.09557 0.324127
2.88283e-09 3.03152 5.13796e-09
-2.56956 1.27021 0.542912
-2.83252 0.435149 0.543885
-1.31414 2.3135e-08 -0.742893
0.790096 1.34785 0.857175
-0.798526 -2.86947 0.308805
0.392491 -1.83405 -0.963678
2.58264 -1.58747 -6.92807e-09
-1.31414 1.33935e-09 0.742893
-0.73208 -2.75128e-08 0.470934
1.31414 1.34917e-08 0.742893
3.60753e-09 1.15824 0.666211
-1.12124 -0.755148 -0.76114
1.4774 -2.41066 -0.601335
4.50582e-10 2.8563 -0.558729
-2.56956 1.27021 -0.542912
-1.98902 1.71125 -0.817905
-0.790096 1.34785 0.857175
1.60955 -1.23774 0.990055
1.60955 1.23774 0.990055
2.44999 2.19721e-09 -0.925039
0.798526 -2.86947 -0.308805
-1.52404 2.62057 -3.98607e-09
2.91626 -0.828 -4.63729e-09
-0.790096 -1.34785 0.857175
-0.392491 1.83405 -0.963678
1.22935 1.93516 -0.977128
-2.44999 2.96668e-08 -0.925039
1.98902 -1.71125 -0.817905
-2.10904 -2.09557 -0.324127
-2.91626 -0.828 3.17024e-09
-2.56956 -1.27021 0.542912
-1.22935 1.93516 0.977128
-2.56956 -1.27021 -0.542912
1.82792 -0.422995 0.963833
0.747145 -2.49969 -0.829448
2.30435 0.84794 -0.922545
2.83252 0.435149 -0.543885
4.94682e-09 -2.38008 0.952887
0.407728 -0.622776 -0.475865
-2.83252 -0.435149 0.543885
-2.61149e-09 -2.8563 0.558729
2.83252 0.435149 0.543885
0.407728 -0.622776 0.475865
-2.30435 -0.84794 0.922545
1.12124 -0.755148 0.761139
-0.392491 1.83405 0.963678
2.44999 -5.31471e-09 0.925039
-0.747145 -2.49969 0.829448
-1.22935 -1.93516 0.977128
-2.13719e-08 -1.15824 -0.666211
-1.4774 -2.41066 -0.601335
1.60955 -1.23774 -0.990055
1.4774 2.41066 0.601335
