2.52137 -1.63332 0.152616
2.51519 -1.4764 0.426837
2.28272 -1.88821 0.314958
2.44943 -1.67343 0.302699
-0.204819 -0.704868 0.482454
-1.39154e-09 -0.979624 0.588158
0.204819 -0.704868 0.482454
-1.05416e-08 -0.794048 0.506877
-2.34167 0.215901 0.9474
-2.02206 0.42362 0.983481
-2.2653 0.637558 0.946569
-2.21747 0.426717 0.970156
2.65691 -1.26008 -0.372089
2.82765 -1.03598 -0.0953353
2.6555 -1.41993 -0.0957833
2.72529 -1.24372 -0.191119
-0.201064 1.28244 0.73902
-0.395415 1.63472 0.900188
-0.596084 1.38486 0.831328
-0.399184 1.42765 0.820757
-2.52137 1.63332 0.152616
-2.51519 1.4764 0.426837
-2.28272 1.88821 0.314958
-2.44943 1.67343 0.302699
-0.898064 -0.123454 0.555091
-1.19743 -0.132313 0.695759
-1.1001 -0.507483 0.69735
-1.06988 -0.255767 0.644939
2.9088 0.431241 -0.372277
2.94495 0.629572 -0.0953063
3.00402 0.210997 -0.095676
2.96551 0.42538 -0.190982
-1.88109 0.633357 -0.977651
-2.12 0.848549 -0.967114
-1.77526 1.04921 -0.983787
-1.93121 0.847445 -0.98487
1.20251e-09 0.979624 0.588158
-0.204819 0.704868 0.482454
0.204819 0.704868 0.482454
1.05656e-08 0.794048 0.506877
0.898064 0.123454 -0.555091
1.1001 0.507484 -0.69735
1.19743 0.132314 -0.695759
1.06988 0.255768 -0.644939
-0.136429 3.0021 0.148281
-0.538611 2.91767 0.302093
-0.136006 2.91115 0.43161
-0.272436 2.95591 0.296403
-1.19743 0.132314 -0.695759
-1.1001 0.507484 -0.69735
-0.898064 0.123454 -0.555091
-1.06988 0.255768 -0.644939
-2.0295 -2.21184 -0.161213
-1.73707 -2.46594 1.27667e-09
-2.0295 -2.21184 0.161213
-1.94101 -2.30953 4.85147e-10
2.59131 -1.06567 0.615157
2.72532 -0.649117 0.615737
2.46126 -0.854023 0.814864
2.60454 -0.858857 0.687989
-0.987316 -1.256 -0.869118
-1.39361 -1.19833 -0.948794
-1.15033 -0.944936 -0.824913
-1.17881 -1.14284 -0.886684
1.3802 0.203678 0.784486
1.63285 0.422507 0.904846
1.28683 0.594174 0.794078
1.43939 0.413822 0.830394
-2.65691 -1.26008 -0.372089
-2.6555 -1.41993 -0.0957833
-2.82765 -1.03598 -0.0953353
-2.72529 -1.24372 -0.191119
-2.44241 -1.77001 -6.1604e-11
-2.20573 -2.03606 -0.164875
-2.20573 -2.03606 0.164875
-2.29348 -1.95796 4.85147e-10
1.68586 0.632685 0.940088
1.5707 1.03025 0.95858
1.32584 0.797987 0.850543
1.53141 0.827814 0.922101
2.82756 -0.646914 -0.457241
2.87474 -0.843323 -0.190642
2.69858 -1.06382 -0.456946
2.81405 -0.854804 -0.371281
1.19743 0.132314 0.695759
1.1001 0.507484 0.69735
0.898064 0.123454 0.555091
1.06988 0.255768 0.644939
-1.28683 -0.594173 -0.794078
-1.63285 -0.422507 -0.904846
-1.3802 -0.203678 -0.784486
-1.43939 -0.413822 -0.830394
-0.594904 -0.755177 0.578291
-0.955166 -0.83719 0.724031
-0.784382 -1.12558 0.770894
-0.780715 -0.904678 0.687578
1.49066 1.7249e-08 -0.827689
1.76273 0.212363 -0.932985
1.76273 -0.212363 -0.932985
1.67973 4.23393e-09 -0.901736
0.269341 2.82244 0.568154
0.645269 2.64684 0.707245
0.665067 2.8284 0.44803
0.532227 2.77793 0.578884
0.136429 3.0021 0.148281
0.136006 2.91115 0.43161
0.538611 2.91767 0.302093
0.272436 2.95591 0.296403
-0.923589 -2.85811 -0.155397
-0.923589 -2.85811 0.155397
-1.28918 -2.72748 1.27667e-09
-1.048 -2.82859 1.75318e-09
1.01577 -1.84179 0.983013
0.799948 -1.53253 0.915426
0.596469 -1.78741 0.956443
0.804102 -1.72802 0.961111
1.15033 0.944936 0.824912
1.39361 1.19833 0.948794
0.987316 1.256 0.869118
1.17881 1.14284 0.886684
-0.538611 -2.91767 0.302093
-0.136429 -3.0021 0.148281
-0.136006 -2.91115 0.43161
-0.272436 -2.95591 0.296403
2.82765 1.03598 0.0953353
2.6555 1.41993 0.0957833
2.65691 1.26008 0.372089
2.72529 1.24372 0.191119
2.8917 0.216858 -0.458851
2.99579 -9.70163e-10 -0.191352
2.8917 -0.216858 -0.458851
2.94016 -3.12698e-09 -0.373232
-0.669435 -2.92799 -0.153971
-0.272859 -3.00423 -1.71556e-09
-0.669435 -2.92799 0.153971
-0.539689 -2.96836 1.75318e-09
-1.88109 -0.633357 0.977651
-2.12 -0.848549 0.967114
-1.77526 -1.04921 0.983787
-1.93121 -0.847445 0.98487
2.15557 1.50562 -0.797803
2.44748 1.28232 -0.665459
2.31651 1.06852 -0.855287
2.31596 1.29 -0.778714
0.898064 -0.123454 -0.555091
1.19743 -0.132313 -0.695759
1.1001 -0.507483 -0.69735
1.06988 -0.255767 -0.644939
1.79079 1.88477 0.819368
1.54079 2.23023 0.721379
1.41679 1.99499 0.910206
1.59155 2.04548 0.826082
-1.92021 -2.25475 -0.316934
-1.60005 -2.418 -0.460169
-1.62745 -2.52416 -0.157174
-1.72211 -2.41066 -0.312895
1.25347 -2.52278 -0.594569
0.916078 -2.75532 -0.452414
0.885921 -2.56881 -0.715073
1.02389 -2.62682 -0.591097
1.20596 2.12043 0.914111
1.33022 2.36267 0.721411
0.955442 2.40546 0.827154
1.17016 2.30336 0.83002
0.916078 2.75532 0.452414
0.885921 2.56881 0.715073
1.25347 2.52278 0.594569
1.02389 2.62682 0.591097
-0.916078 2.75532 0.452414
-1.25347 2.52278 0.594569
-0.885921 2.56881 0.715073
-1.02389 2.62682 0.591097
0.955166 -0.83719 0.724031
0.594904 -0.755177 0.578291
0.784382 -1.12558 0.770894
0.780715 -0.904678 0.687578
-2.94495 -0.629572 0.0953063
-2.9088 -0.431241 0.372277
-3.00402 -0.210997 0.095676
-2.96551 -0.42538 0.190982
0.393751 2.04535 0.979453
0.566329 2.38885 0.904544
0.188834 2.3155 0.95053
0.384518 2.25588 0.959594
-0.393751 -2.04535 0.979453
-0.566329 -2.38885 0.904544
-0.188834 -2.3155 0.95053
-0.384518 -2.25588 0.959594
2.20573 2.03606 -0.164875
2.20573 2.03606 0.164875
2.44241 1.77001 2.31032e-09
2.29348 1.95796 -4.91267e-10
-0.592258 0.547067 0.51096
-0.943949 0.60355 0.652933
-0.75118 0.234549 0.503718
-0.766852 0.462929 0.54915
-1.01383e-10 -0.207781 -0.34253
0.20385 -0.511987 -0.418331
-0.20385 -0.511987 -0.418331
-2.75809e-08 -0.408285 -0.37863
-1.00971 2.03407 0.966172
-0.594033 1.98986 0.979329
-0.777139 2.31121 0.91223
-0.795609 2.12275 0.967157
-1.60005 2.418 -0.460169
-1.92021 2.25475 -0.316934
-1.62745 2.52416 -0.157174
-1.72211 2.41066 -0.312895
2.46126 0.854023 -0.814864
2.59131 1.06567 -0.615157
2.72532 0.649117 -0.615737
2.60454 0.858857 -0.687989
-0.50398 -2.56113 0.81164
-0.133335 -2.74498 0.682457
-0.121597 -2.5021 0.881422
-0.254932 -2.61476 0.797582
-1.3802 -0.203678 0.784486
-1.63285 -0.422507 0.904846
-1.28683 -0.594173 0.794078
-1.43939 -0.413822 0.830394
0.121597 2.5021 -0.881422
0.133335 2.74498 -0.682457
0.50398 2.56113 -0.81164
0.254932 2.61476 -0.797582
-1.79079 1.88477 0.819368
-1.41679 1.99499 0.910206
-1.54079 2.23023 0.721379
-1.59155 2.04548 0.826082
-1.22758 -1.73131 -0.982984
-1.41808 -1.39649 -0.976884
-1.00406 -1.45086 -0.927103
-1.22003 -1.53587 -0.972759
0.201064 1.28244 -0.73902
0.395415 1.63472 -0.900188
0.596084 1.38486 -0.831328
0.399184 1.42765 -0.820757
-1.99758 -1.49378 -0.887634
-2.15254 -1.06881 -0.930238
-1.80552 -1.25995 -0.979289
-1.994 -1.27845 -0.943496
1.99758 -1.49378 -0.887634
1.80552 -1.25995 -0.979289
2.15254 -1.06881 -0.930238
1.994 -1.27845 -0.943496
2.0295 -2.21184 0.161213
1.73707 -2.46594 9.0634e-10
2.0295 -2.21184 -0.161213
1.94101 -2.30953 5.16943e-10
0.669435 -2.92799 0.153971
0.272859 -3.00423 -1.71556e-09
0.669435 -2.92799 -0.153971
0.539689 -2.96836 2.04458e-09
0.645269 -2.64684 0.707245
0.269341 -2.82244 0.568154
0.665067 -2.8284 0.44803
0.532227 -2.77793 0.578884
2.34167 0.215901 0.9474
2.2653 0.637558 0.946569
2.02206 0.42362 0.983481
2.21747 0.426717 0.970156
-2.82756 0.646914 -0.457241
-2.87474 0.843323 -0.190642
-2.69858 1.06382 -0.456946
-2.81405 0.854804 -0.371281
1.54079 -2.23023 -0.721379
1.41679 -1.99499 -0.910206
1.79079 -1.88477 -0.819368
1.59155 -2.04548 -0.826082
2.15254 1.06881 0.930238
1.99758 1.49378 0.887634
1.80552 1.25995 0.979289
1.994 1.27845 0.943496
0.777139 2.31121 -0.91223
1.00971 2.03407 -0.966172
0.594033 1.98986 -0.979329
0.795609 2.12275 -0.967157
-1.68586 -0.632685 0.940088
-1.5707 -1.03025 0.95858
-1.32584 -0.797987 0.850543
-1.53141 -0.827814 0.922101
-7.12397e-09 -1.37023 -0.772379
0.197295 -1.69477 -0.9083
-0.197295 -1.69477 -0.9083
1.91081e-08 -1.57549 -0.862228
-0.198068 -1.90295 -0.964679
0.198068 -1.90295 -0.964679
5.59103e-09 -2.19388 -0.980695
1.91081e-08 -1.99186 -0.974986
-2.15254 1.06881 0.930238
-1.80552 1.25995 0.979289
-1.99758 1.49378 0.887634
-1.994 1.27845 0.943496
0.197295 1.69477 0.9083
-0.197295 1.69477 0.9083
1.20251e-09 1.37023 0.772379
-8.45567e-09 1.57549 0.862228
-0.569276 0.111095 -0.426851
-0.4005 0.422577 -0.427472
-0.196541 0.103891 -0.343553
-0.393191 0.214985 -0.388794
-2.6555 -1.41993 0.0957833
-2.65691 -1.26008 0.372089
-2.82765 -1.03598 0.0953353
-2.72529 -1.24372 0.191119
1.88109 0.633357 0.977651
2.12 0.848549 0.967114
1.77526 1.04921 0.983787
1.93121 0.847445 0.98487
1.62745 2.52416 0.157174
1.60005 2.418 0.460169
1.92021 2.25475 0.316934
1.72211 2.41066 0.312895
1.99892 -2.09929 -0.462035
1.67969 -2.25912 -0.597751
1.94079 -1.9067 -0.712493
1.88045 -2.09631 -0.595578
0.777139 -2.31121 -0.91223
0.594033 -1.98986 -0.979329
1.00971 -2.03407 -0.966172
0.795609 -2.12275 -0.967157
2.72532 0.649117 0.615737
2.59131 1.06567 0.615157
2.46126 0.854023 0.814864
2.60454 0.858857 0.687989
0.569276 -0.111095 0.426851
0.196541 -0.103891 0.343553
0.4005 -0.422577 0.427472
0.393191 -0.214985 0.388794
1.67969 2.25912 -0.597751
1.99892 2.09929 -0.462035
1.94079 1.9067 -0.712493
1.88045 2.09631 -0.595578
1.04378 2.77471 0.307903
1.3844 2.54923 0.456955
1.40351 2.65493 0.156466
1.28251 2.67265 0.308972
0.50398 -2.56113 -0.81164
0.133335 -2.74498 -0.682457
0.121597 -2.5021 -0.881422
0.254932 -2.61476 -0.797582
0.404115 -0.823568 0.558926
0.203509 -1.08714 0.646909
0.597261 -1.17277 0.74478
0.402805 -1.02026 0.642099
-2.60116 4.85937e-09 0.818022
-2.79131 0.217832 0.618013
-2.79131 -0.217832 0.618013
-2.73938 4.0558e-10 0.691556
0.50398 -2.56113 0.81164
0.121597 -2.5021 0.881422
0.133335 -2.74498 0.682457
0.254932 -2.61476 0.797582
0.799948 1.53253 0.915426
1.01577 1.84179 0.983013
0.596469 1.78741 0.956443
0.804102 1.72802 0.961111
-1.20596 2.12043 -0.914111
-1.33022 2.36267 -0.721411
-0.955442 2.40546 -0.827154
-1.17016 2.30336 -0.83002
-2.15254 -1.06881 0.930238
-1.99758 -1.49378 0.887634
-1.80552 -1.25995 0.979289
-1.994 -1.27845 0.943496
2.12 -0.848549 0.967114
1.88109 -0.633357 0.977651
1.77526 -1.04921 0.983787
1.93121 -0.847445 0.98487
0.592258 0.547067 -0.51096
0.943949 0.60355 -0.652933
0.75118 0.234549 -0.503718
0.766852 0.462929 -0.54915
0.196541 -0.103891 -0.343553
0.569276 -0.111095 -0.426851
0.4005 -0.422577 -0.427472
0.393191 -0.214985 -0.388794
-1.95671 -0.212804 -0.974057
-2.25724 9.88893e-09 -0.970549
-1.95671 0.212804 -0.974057
-2.06769 2.19028e-08 -0.983881
-1.63285 0.422507 0.904846
-1.3802 0.203678 0.784486
-1.28683 0.594173 0.794078
-1.43939 0.413822 0.830394
-2.18519 -1.90853 -0.456397
-2.41303 -1.49679 -0.561995
-2.1238 -1.71529 -0.701849
-2.24974 -1.71413 -0.579297
0.594904 -0.755177 -0.578291
0.955166 -0.83719 -0.724031
0.784382 -1.12558 -0.770894
0.780715 -0.904678 -0.687578
-0.596469 -1.78741 -0.956443
-1.01577 -1.84179 -0.983013
-0.799948 -1.53253 -0.915426
-0.804102 -1.72802 -0.961111
-1.67969 -2.25912 -0.597751
-1.99892 -2.09929 -0.462035
-1.94079 -1.9067 -0.712493
-1.88045 -2.09631 -0.595578
-1.41808 1.39649 -0.976884
-1.22758 1.73131 -0.982984
-1.00406 1.45086 -0.927103
-1.22003 1.53587 -0.972759
0.133335 2.74498 0.682457
0.121597 2.5021 0.881422
0.50398 2.56113 0.81164
0.254932 2.61476 0.797582
-2.82765 1.03598 0.0953353
-2.65691 1.26008 0.372089
-2.6555 1.41993 0.0957833
-2.72529 1.24372 0.191119
1.63285 -0.422507 0.904846
1.3802 -0.203678 0.784486
1.28683 -0.594173 0.794078
1.43939 -0.413822 0.830394
1.5707 -1.03025 -0.95858
1.32584 -0.797987 -0.850543
1.68586 -0.632685 -0.940088
1.53141 -0.827814 -0.922101
2.02206 0.42362 -0.983481
2.2653 0.637558 -0.946569
2.34167 0.215901 -0.9474
2.21747 0.426717 -0.970156
-2.69858 -1.06382 0.456946
-2.82756 -0.646914 0.457241
-2.87474 -0.843323 0.190642
-2.81405 -0.854804 0.371281
-1.25347 -2.52278 0.594569
-0.916078 -2.75532 0.452414
-0.885921 -2.56881 0.715073
-1.02389 -2.62682 0.591097
-0.799948 1.53253 -0.915426
-1.01577 1.84179 -0.983013
-0.596469 1.78741 -0.956443
-0.804102 1.72802 -0.961111
-2.9088 -0.431241 -0.372277
-2.94495 -0.629572 -0.0953063
-3.00402 -0.210997 -0.095676
-2.96551 -0.42538 -0.190982
-0.665067 -2.8284 0.44803
-0.269341 -2.82244 0.568154
-0.645269 -2.64684 0.707245
-0.532227 -2.77793 0.578884
-2.79131 -0.217832 -0.618013
-2.79131 0.217832 -0.618013
-2.60116 9.88893e-09 -0.818022
-2.73938 4.48343e-09 -0.691556
2.9088 -0.431241 -0.372277
3.00402 -0.210997 -0.095676
2.94495 -0.629572 -0.0953063
2.96551 -0.42538 -0.190982
1.68586 -0.632685 0.940088
1.32584 -0.797987 0.850543
1.5707 -1.03025 0.95858
1.53141 -0.827814 0.922101
2.18519 -1.90853 -0.456397
2.1238 -1.71529 -0.701849
2.41303 -1.49679 -0.561995
2.24974 -1.71413 -0.579297
-1.81582 -1.68151 0.898556
-1.43235 -1.79815 0.962238
-1.62543 -1.43916 0.982172
-1.63214 -1.64539 0.957302
1.54079 2.23023 -0.721379
1.79079 1.88477 -0.819368
1.41679 1.99499 -0.910206
1.59155 2.04548 -0.826082
1.00971 -2.03407 0.966172
0.594033 -1.98986 0.979329
0.777139 -2.31121 0.91223
0.795609 -2.12275 0.967157
-0.594904 0.755177 0.578291
-0.784382 1.12558 0.770894
-0.955166 0.83719 0.724031
-0.780715 0.904678 0.687578
-2.02206 0.42362 -0.983481
-2.34167 0.215901 -0.9474
-2.2653 0.637558 -0.946569
-2.21747 0.426717 -0.970156
0.955442 2.40546 -0.827154
1.33022 2.36267 -0.721411
1.20596 2.12043 -0.914111
1.17016 2.30336 -0.83002
2.51364 -0.216878 -0.871137
2.70617 -0.434418 -0.689935
2.44259 -0.643328 -0.86927
2.56672 -0.433464 -0.816593
1.77526 1.04921 -0.983787
2.12 0.848549 -0.967114
1.88109 0.633357 -0.977651
1.93121 0.847445 -0.98487
0.987316 1.256 -0.869118
1.39361 1.19833 -0.948794
1.15033 0.944936 -0.824912
1.17881 1.14284 -0.886684
2.02206 -0.42362 -0.983481
2.34167 -0.215901 -0.9474
2.2653 -0.637558 -0.946569
2.21747 -0.426717 -0.970156
1.99892 -2.09929 0.462035
1.94079 -1.9067 0.712493
1.67969 -2.25912 0.597751
1.88045 -2.09631 0.595578
-2.44748 1.28232 0.665459
-2.31651 1.06852 0.855287
-2.15557 1.50562 0.797803
-2.31596 1.29 0.778714
2.6555 -1.41993 0.0957833
2.82765 -1.03598 0.0953353
2.65691 -1.26008 0.372089
2.72529 -1.24372 0.191119
-2.41303 -1.49679 0.561995
-2.18519 -1.90853 0.456397
-2.1238 -1.71529 0.701849
-2.24974 -1.71413 0.579297
-1.33022 2.36267 0.721411
-1.20596 2.12043 0.914111
-0.955442 2.40546 0.827154
-1.17016 2.30336 0.83002
-2.15254 1.06881 -0.930238
-1.99758 1.49378 -0.887634
-1.80552 1.25995 -0.979289
-1.994 1.27845 -0.943496
1.3844 -2.54923 0.456955
1.04378 -2.77471 0.307903
1.40351 -2.65493 0.156466
1.28251 -2.67265 0.308972
-1.25347 -2.52278 -0.594569
-0.885921 -2.56881 -0.715073
-0.916078 -2.75532 -0.452414
-1.02389 -2.62682 -0.591097
2.94495 -0.629572 0.0953063
3.00402 -0.210997 0.095676
2.9088 -0.431241 0.372277
2.96551 -0.42538 0.190982
2.44748 -1.28232 -0.665459
2.15557 -1.50562 -0.797803
2.31651 -1.06852 -0.855287
2.31596 -1.29 -0.778714
0.596084 -1.38486 0.831328
0.201064 -1.28244 0.73902
0.395415 -1.63472 0.900188
0.399184 -1.42765 0.820757
-0.188834 -2.3155 -0.95053
-0.566329 -2.38885 -0.904544
-0.393751 -2.04535 -0.979453
-0.384518 -2.25588 -0.959594
1.81582 1.68151 0.898556
1.43235 1.79815 0.962238
1.62543 1.43916 0.982172
1.63214 1.64539 0.957302
-0.201064 -1.28244 0.73902
-0.596084 -1.38486 0.831328
-0.395415 -1.63472 0.900188
-0.399184 -1.42765 0.820757
2.51519 1.4764 0.426837
2.52137 1.63332 0.152616
2.28272 1.88821 0.314958
2.44943 1.67343 0.302699
-2.51519 -1.4764 0.426837
-2.52137 -1.63332 0.152616
-2.28272 -1.88821 0.314958
-2.44943 -1.67343 0.302699
-1.15033 -0.944936 0.824913
-1.39361 -1.19833 0.948794
-0.987316 -1.256 0.869118
-1.17881 -1.14284 0.886684
-0.196541 -0.103891 0.343553
-0.569276 -0.111095 0.426851
-0.4005 -0.422577 0.427472
-0.393191 -0.214985 0.388794
-2.20573 2.03606 -0.164875
-2.44241 1.77001 5.32973e-11
-2.20573 2.03606 0.164875
-2.29348 1.95796 -5.20397e-10
2.46126 -0.854023 -0.814864
2.72532 -0.649117 -0.615737
2.59131 -1.06567 -0.615157
2.60454 -0.858857 -0.687989
-1.62745 2.52416 0.157174
-1.92021 2.25475 0.316934
-1.60005 2.418 0.460169
-1.72211 2.41066 0.312895
-1.39154e-09 -1.37023 0.772379
-0.197295 -1.69477 0.9083
0.197295 -1.69477 0.9083
8.62347e-09 -1.57549 0.862228
-0.136006 2.91115 -0.43161
-0.538611 2.91767 -0.302093
-0.136429 3.0021 -0.148281
-0.272436 2.95591 -0.296403
-2.8917 -0.216858 -0.458851
-2.99579 4.88337e-10 -0.191352
-2.8917 0.216858 -0.458851
-2.94016 4.48343e-09 -0.373232
-1.19743 -0.132313 -0.695759
-0.898064 -0.123454 -0.555091
-1.1001 -0.507483 -0.69735
-1.06988 -0.255767 -0.644939
-1.28918 2.72748 -1.32869e-09
-0.923589 2.85811 0.155397
-0.923589 2.85811 -0.155397
-1.048 2.82859 -1.6754e-09
-2.59131 -1.06567 0.615157
-2.46126 -0.854023 0.814864
-2.72532 -0.649117 0.615737
-2.60454 -0.858857 0.687989
-0.955166 -0.83719 -0.724031
-0.594904 -0.755177 -0.578291
-0.784382 -1.12558 -0.770894
-0.780715 -0.904678 -0.687578
-0.943949 0.60355 -0.652933
-0.592258 0.547067 -0.51096
-0.75118 0.234549 -0.503718
-0.766852 0.462929 -0.54915
-1.79079 -1.88477 0.819368
-1.54079 -2.23023 0.721379
-1.41679 -1.99499 0.910206
-1.59155 -2.04548 0.826082
2.28272 1.88821 -0.314958
2.52137 1.63332 -0.152616
2.51519 1.4764 -0.426837
2.44943 1.67343 -0.302699
0.20385 0.511987 0.418331
-0.20385 0.511987 0.418331
5.57213e-11 0.207781 0.34253
1.05656e-08 0.408285 0.37863
0.404115 -0.823568 -0.558926
0.597261 -1.17277 -0.74478
0.203509 -1.08714 -0.646909
0.402805 -1.02026 -0.642099
0.955166 0.83719 0.724031
0.784382 1.12558 0.770894
0.594904 0.755177 0.578291
0.780715 0.904678 0.687578
-1.76273 -0.212363 0.932985
-1.49066 4.4645e-10 0.827689
-1.76273 0.212363 0.932985
-1.67973 5.53967e-09 0.901736
2.65691 1.26008 -0.372089
2.6555 1.41993 -0.0957833
2.82765 1.03598 -0.0953353
2.72529 1.24372 -0.191119
-0.596084 1.38486 -0.831328
-0.395415 1.63472 -0.900188
-0.201064 1.28244 -0.73902
-0.399184 1.42765 -0.820757
-0.393751 2.04535 -0.979453
-0.566329 2.38885 -0.904544
-0.188834 2.3155 -0.95053
-0.384518 2.25588 -0.959594
0.597261 1.17277 0.74478
0.203509 1.08714 0.646909
0.404115 0.823568 0.558926
0.402805 1.02026 0.642099
-2.82756 0.646914 0.457241
-2.69858 1.06382 0.456946
-2.87474 0.843323 0.190642
-2.81405 0.854804 0.371281
-1.81582 -1.68151 -0.898556
-1.62543 -1.43916 -0.982172
-1.43235 -1.79815 -0.962238
-1.63214 -1.64539 -0.957302
-2.46126 0.854023 -0.814864
-2.72532 0.649117 -0.615737
-2.59131 1.06567 -0.615157
-2.60454 0.858857 -0.687989
1.41808 -1.39649 0.976884
1.00406 -1.45086 0.927103
1.22758 -1.73131 0.982984
1.22003 -1.53587 0.972759
0.566329 -2.38885 0.904544
0.393751 -2.04535 0.979453
0.188834 -2.3155 0.95053
0.384518 -2.25588 0.959594
-0.538611 -2.91767 -0.302093
-0.136006 -2.91115 -0.43161
-0.136429 -3.0021 -0.148281
-0.272436 -2.95591 -0.296403
1.22758 1.73131 -0.982984
1.41808 1.39649 -0.976884
1.00406 1.45086 -0.927103
1.22003 1.53587 -0.972759
1.04378 2.77471 -0.307903
1.40351 2.65493 -0.156466
1.3844 2.54923 -0.456955
1.28251 2.67265 -0.308972
-2.15557 -1.50562 -0.797803
-2.44748 -1.28232 -0.665459
-2.31651 -1.06852 -0.855287
-2.31596 -1.29 -0.778714
-0.404115 -0.823568 -0.558926
-0.203509 -1.08714 -0.646909
-0.597261 -1.17277 -0.74478
-0.402805 -1.02026 -0.642099
-0.597261 1.17277 -0.74478
-0.203509 1.08713 -0.646909
-0.404115 0.823568 -0.558926
-0.402805 1.02026 -0.642099
-0.665067 2.8284 0.44803
-0.645269 2.64684 0.707245
-0.269341 2.82244 0.568154
-0.532227 2.77793 0.578884
1.79079 -1.88477 0.819368
1.41679 -1.99499 0.910206
1.54079 -2.23023 0.721379
1.59155 -2.04548 0.826082
-2.51364 0.216878 -0.871137
-2.70617 0.434418 -0.689935
-2.44259 0.643328 -0.86927
-2.56672 0.433464 -0.816593
1.60005 2.418 -0.460169
1.62745 2.52416 -0.157174
1.92021 2.25475 -0.316934
1.72211 2.41066 -0.312895
-2.31651 -1.06852 0.855287
-2.44748 -1.28232 0.665459
-2.15557 -1.50562 0.797803
-2.31596 -1.29 0.778714
-0.645269 -2.64684 -0.707245
-0.269341 -2.82244 -0.568154
-0.665067 -2.8284 -0.44803
-0.532227 -2.77793 -0.578884
-0.75118 -0.234549 0.503718
-0.943949 -0.60355 0.652934
-0.592258 -0.547067 0.51096
-0.766852 -0.462929 0.54915
2.15254 -1.06881 0.930238
1.80552 -1.25995 0.979289
1.99758 -1.49378 0.887634
1.994 -1.27845 0.943496
-1.62543 1.43916 0.982172
-1.43235 1.79815 0.962238
-1.81582 1.68151 0.898556
-1.63214 1.64539 0.957302
-0.955166 0.83719 -0.724031
-0.784381 1.12558 -0.770894
-0.594904 0.755177 -0.578291
-0.780715 0.904678 -0.687578
0.198068 1.90295 0.964679
-1.68843e-09 2.19388 0.980695
-0.198068 1.90295 0.964679
-8.45567e-09 1.99186 0.974986
1.5707 1.03025 -0.95858
1.68586 0.632685 -0.940088
1.32584 0.797987 -0.850543
1.53141 0.827814 -0.922101
5.57213e-11 -0.207781 0.34253
-0.20385 -0.511987 0.418331
0.20385 -0.511987 0.418331
-1.05416e-08 -0.408285 0.37863
-1.54079 -2.23023 -0.721379
-1.79079 -1.88477 -0.819368
-1.41679 -1.99499 -0.910206
-1.59155 -2.04548 -0.826082
-1.00971 2.03407 -0.966172
-0.777139 2.31121 -0.91223
-0.594033 1.98986 -0.979329
-0.795609 2.12275 -0.967157
1.25347 -2.52278 0.594569
0.885921 -2.56881 0.715073
0.916078 -2.75532 0.452414
1.02389 -2.62682 0.591097
1.43235 -1.79815 -0.962238
1.62543 -1.43916 -0.982172
1.81582 -1.68151 -0.898556
1.63214 -1.64539 -0.957302
2.12 -0.848549 -0.967114
1.77526 -1.04921 -0.983787
1.88109 -0.633357 -0.977651
1.93121 -0.847445 -0.98487
-1.77526 -1.04921 -0.983787
-2.12 -0.848549 -0.967114
-1.88109 -0.633357 -0.977651
-1.93121 -0.847445 -0.98487
-2.51364 0.216878 0.871137
-2.44259 0.643328 0.86927
-2.70617 0.434418 0.689935
-2.56672 0.433464 0.816593
1.73707 2.46594 -8.52693e-10
2.0295 2.21184 0.161213
2.0295 2.21184 -0.161213
1.94101 2.30953 -4.91267e-10
0.75118 -0.234549 0.503718
0.592258 -0.547067 0.51096
0.943949 -0.60355 0.652933
0.766852 -0.462929 0.54915
-1.68586 0.632685 0.940088
-1.32584 0.797987 0.850543
-1.5707 1.03025 0.95858
-1.53141 0.827814 0.922101
2.41303 1.49679 0.561995
2.18519 1.90853 0.456397
2.1238 1.71529 0.701849
2.24974 1.71413 0.579297
-1.20596 -2.12043 0.914111
-1.33022 -2.36267 0.721411
-0.955442 -2.40546 0.827154
-1.17016 -2.30336 0.83002
-1.41808 1.39649 0.976884
-1.00406 1.45086 0.927103
-1.22758 1.73131 0.982984
-1.22003 1.53587 0.972759
-0.799948 -1.53253 0.915426
-1.01577 -1.84179 0.983013
-0.596469 -1.78741 0.956443
-0.804102 -1.72802 0.961111
-1.3844 2.54923 -0.456955
-1.40351 2.65493 -0.156466
-1.04378 2.77471 -0.307903
-1.28251 2.67265 -0.308972
-1.41808 -1.39649 0.976884
-1.22758 -1.73131 0.982984
-1.00406 -1.45086 0.927103
-1.22003 -1.53587 0.972759
-1.01577 1.84179 0.983013
-0.799948 1.53253 0.915426
-0.596469 1.78741 0.956443
-0.804102 1.72802 0.961111
-1.40351 -2.65493 0.156466
-1.04378 -2.77471 0.307903
-1.3844 -2.54923 0.456955
-1.28251 -2.67265 0.308972
1.40351 -2.65493 -0.156466
1.04378 -2.77471 -0.307903
1.3844 -2.54923 -0.456955
1.28251 -2.67265 -0.308972
1.62543 -1.43916 0.982172
1.43235 -1.79815 0.962238
1.81582 -1.68151 0.898556
1.63214 -1.64539 0.957302
-2.69858 -1.06382 -0.456946
-2.87474 -0.843323 -0.190642
-2.82756 -0.646914 -0.457241
-2.81405 -0.854804 -0.371281
1.95671 0.212804 -0.974057
2.25724 7.32403e-10 -0.970549
1.95671 -0.212804 -0.974057
2.06769 4.23393e-09 -0.983881
-0.596084 -1.38486 -0.831328
-0.201064 -1.28244 -0.73902
-0.395415 -1.63472 -0.900188
-0.399184 -1.42765 -0.820757
-2.31651 1.06852 -0.855287
-2.44748 1.28232 -0.665459
-2.15557 1.50562 -0.797803
-2.31596 1.29 -0.778714
1.99758 1.49378 -0.887634
2.15254 1.06881 -0.930238
1.80552 1.25995 -0.979289
1.994 1.27845 -0.943496
1.81582 1.68151 -0.898556
1.62543 1.43916 -0.982172
1.43235 1.79815 -0.962238
1.63214 1.64539 -0.957302
-0.569276 -0.111095 -0.426851
-0.196541 -0.103891 -0.343553
-0.4005 -0.422577 -0.427472
-0.393191 -0.214985 -0.388794
-0.645269 2.64684 -0.707245
-0.665067 2.8284 -0.44803
-0.269341 2.82244 -0.568154
-0.532227 2.77793 -0.578884
0.885921 2.56881 -0.715073
0.916078 2.75532 -0.452414
1.25347 2.52278 -0.594569
1.02389 2.62682 -0.591097
0.923589 2.85811 0.155397
1.28918 2.72748 -8.52693e-10
0.923589 2.85811 -0.155397
1.048 2.82859 -2.11086e-09
1.76273 -0.212363 0.932985
1.76273 0.212363 0.932985
1.49066 4.49723e-09 0.827689
1.67973 2.66394e-09 0.901736
1.22758 -1.73131 -0.982984
1.00406 -1.45086 -0.927103
1.41808 -1.39649 -0.976884
1.22003 -1.53587 -0.972759
0.566329 -2.38885 -0.904544
0.188834 -2.3155 -0.95053
0.393751 -2.04535 -0.979453
0.384518 -2.25588 -0.959594
-1.5707 -1.03025 -0.95858
-1.68586 -0.632685 -0.940088
-1.32584 -0.797987 -0.850543
-1.53142 -0.827814 -0.922101
2.44748 -1.28232 0.665459
2.31651 -1.06852 0.855287
2.15557 -1.50562 0.797803
2.31596 -1.29 0.778714
1.19743 -0.132313 0.695759
0.898064 -0.123454 0.555091
1.1001 -0.507483 0.69735
1.06988 -0.255767 0.644939
1.39361 -1.19833 0.948794
1.15033 -0.944936 0.824912
0.987316 -1.256 0.869118
1.17881 -1.14284 0.886684
1.92021 -2.25475 0.316934
1.60005 -2.418 0.460169
1.62745 -2.52416 0.157174
1.72211 -2.41066 0.312895
-1.49066 7.71167e-09 -0.827689
-1.76273 -0.212363 -0.932985
-1.76273 0.212363 -0.932985
-1.67973 2.19028e-08 -0.901736
2.70617 -0.434418 0.689935
2.51364 -0.216878 0.871137
2.44259 -0.643328 0.86927
2.56672 -0.433464 0.816593
2.69858 1.06382 -0.456946
2.87474 0.843323 -0.190642
2.82756 0.646914 -0.457241
2.81405 0.854804 -0.371281
0.923589 -2.85811 0.155397
0.923589 -2.85811 -0.155397
1.28918 -2.72748 9.0634e-10
1.048 -2.82859 2.04458e-09
-1.3844 -2.54923 -0.456955
-1.04378 -2.77471 -0.307903
-1.40351 -2.65493 -0.156466
-1.28251 -2.67265 -0.308972
-2.28272 -1.88821 -0.314958
-2.52137 -1.63332 -0.152616
-2.51519 -1.4764 -0.426837
-2.44943 -1.67343 -0.302699
-0.955442 -2.40546 -0.827154
-1.33022 -2.36267 -0.721411
-1.20596 -2.12043 -0.914111
-1.17016 -2.30336 -0.83002
-2.51519 1.4764 -0.426837
-2.52137 1.63332 -0.152616
-2.28272 1.88821 -0.314958
-2.44943 1.67343 -0.302699
1.33022 -2.36267 0.721411
1.20596 -2.12043 0.914111
0.955442 -2.40546 0.827154
1.17016 -2.30336 0.83002
0.272859 3.00423 1.71265e-09
0.669435 2.92799 0.153971
0.669435 2.92799 -0.153971
0.539689 2.96836 -2.11086e-09
-0.198068 1.90295 -0.964679
-5.47397e-09 2.19388 -0.980695
0.198068 1.90295 -0.964679
-1.9266e-08 1.99186 -0.974986
-2.72532 0.649117 0.615737
-2.46126 0.854023 0.814864
-2.59131 1.06567 0.615157
-2.60454 0.858857 0.687989
2.87474 0.843323 0.190642
2.69858 1.06382 0.456946
2.82756 0.646914 0.457241
2.81405 0.854804 0.371281
-1.3802 0.203678 -0.784486
-1.63285 0.422507 -0.904846
-1.28683 0.594174 -0.794078
-1.43939 0.413822 -0.830394
0.136006 2.91115 -0.43161
0.136429 3.0021 -0.148281
0.538611 2.91767 -0.302093
0.272436 2.95591 -0.296403
1.33022 -2.36267 -0.721411
0.955442 -2.40546 -0.827154
1.20596 -2.12043 -0.914111
1.17016 -2.30336 -0.83002
0.75118 -0.234549 -0.503718
0.943949 -0.60355 -0.652933
0.592258 -0.547067 -0.51096
0.766852 -0.462929 -0.54915
-1.15033 0.944936 -0.824912
-1.39361 1.19833 -0.948794
-0.987315 1.256 -0.869118
-1.17881 1.14284 -0.886684
-2.8917 -0.216858 0.458851
-2.8917 0.216858 0.458851
-2.99579 4.88337e-10 0.191352
-2.94016 4.0558e-10 0.373232
-0.75118 -0.234549 -0.503718
-0.592258 -0.547067 -0.51096
-0.943949 -0.60355 -0.652934
-0.766852 -0.462929 -0.54915
-0.133335 2.74498 0.682457
-0.50398 2.56113 0.81164
-0.121597 2.5021 0.881422
-0.254932 2.61476 0.797582
-1.68586 0.632685 -0.940088
-1.5707 1.03025 -0.95858
-1.32584 0.797987 -0.850543
-1.53141 0.827814 -0.922101
-2.9088 0.431241 -0.372277
-3.00402 0.210997 -0.095676
-2.94495 0.629572 -0.0953063
-2.96551 0.42538 -0.190982
0.943949 0.60355 0.652933
0.592258 0.547067 0.51096
0.75118 0.234549 0.503718
0.766852 0.462929 0.54915
2.52137 -1.63332 -0.152616
2.28272 -1.88821 -0.314958
2.51519 -1.4764 -0.426837
2.44943 -1.67343 -0.302699
2.44241 -1.77001 -2.30936e-09
2.20573 -2.03606 0.164875
2.20573 -2.03606 -0.164875
2.29348 -1.95796 5.16943e-10
-2.41303 1.49679 -0.561995
-2.18519 1.90853 -0.456397
-2.1238 1.71529 -0.701849
-2.24974 1.71413 -0.579297
-1.99892 2.09929 0.462035
-1.94079 1.9067 0.712493
-1.67969 2.25912 0.597751
-1.88045 2.09631 0.595578
2.25724 -1.77157e-09 0.970549
1.95671 0.212804 0.974057
1.95671 -0.212804 0.974057
2.06769 2.66394e-09 0.983881
2.2653 -0.637558 0.946569
2.34167 -0.215901 0.9474
2.02206 -0.42362 0.983481
2.21747 -0.426717 0.970156
-3.00402 0.210997 0.095676
-2.9088 0.431241 0.372277
-2.94495 0.629572 0.0953063
-2.96551 0.42538 0.190982
-1.94079 -1.9067 0.712493
-1.99892 -2.09929 0.462035
-1.67969 -2.25912 0.597751
-1.88045 -2.09631 0.595578
-0.50398 -2.56113 -0.81164
-0.121597 -2.5021 -0.881422
-0.133335 -2.74498 -0.682457
-0.254932 -2.61476 -0.797582
-1.00971 -2.03407 0.966172
-0.777139 -2.31121 0.91223
-0.594033 -1.98986 0.979329
-0.795609 -2.12275 0.967157
0.204819 -0.704868 -0.482454
-7.12397e-09 -0.979624 -0.588158
-0.204819 -0.704868 -0.482454
-2.75809e-08 -0.794048 -0.506877
-0.566329 2.38885 0.904544
-0.393751 2.04535 0.979453
-0.188834 2.3155 0.95053
-0.384518 2.25588 0.959594
1.39361 -1.19833 -0.948794
0.987316 -1.256 -0.869118
1.15033 -0.944936 -0.824912
1.17881 -1.14284 -0.886684
-2.02206 -0.42362 -0.983481
-2.2653 -0.637558 -0.946569
-2.34167 -0.215901 -0.9474
-2.21747 -0.426717 -0.970156
-0.777139 -2.31121 -0.91223
-1.00971 -2.03407 -0.966172
-0.594033 -1.98986 -0.979329
-0.795609 -2.12275 -0.967157
0.196541 0.103891 -0.343553
0.4005 0.422577 -0.427472
0.569276 0.111095 -0.426851
0.393191 0.214985 -0.388794
-1.39361 1.19833 0.948794
-1.15033 0.944936 0.824912
-0.987316 1.256 0.869118
-1.17881 1.14284 0.886684
1.28683 0.594174 -0.794078
1.63285 0.422507 -0.904846
1.3802 0.203678 -0.784486
1.43939 0.413822 -0.830394
0.198068 -1.90295 0.964679
-0.198068 -1.90295 0.964679
1.64894e-09 -2.19388 0.980695
8.62347e-09 -1.99186 0.974986
1.94079 1.9067 0.712493
1.99892 2.09929 0.462035
1.67969 2.25912 0.597751
1.88045 2.09631 0.595578
0.538611 -2.91767 0.302093
0.136006 -2.91115 0.43161
0.136429 -3.0021 0.148281
0.272436 -2.95591 0.296403
-1.81582 1.68151 -0.898556
-1.43235 1.79815 -0.962238
-1.62543 1.43916 -0.982172
-1.63214 1.64539 -0.957302
2.87474 -0.843323 0.190642
2.82756 -0.646914 0.457241
2.69858 -1.06382 0.456946
2.81405 -0.854804 0.371281
0.596084 1.38486 0.831328
0.395415 1.63472 0.900188
0.201064 1.28244 0.73902
0.399184 1.42765 0.820757
-2.12 0.848549 0.967114
-1.88109 0.633357 0.977651
-1.77526 1.04921 0.983787
-1.93121 0.847445 0.98487
0.201064 -1.28244 -0.73902
0.596084 -1.38486 -0.831328
0.395415 -1.63472 -0.900188
0.399184 -1.42765 -0.820757
-2.41303 1.49679 0.561995
-2.1238 1.71529 0.701849
-2.18519 1.90853 0.456397
-2.24974 1.71413 0.579297
-2.46126 -0.854023 -0.814864
-2.59131 -1.06567 -0.615157
-2.72532 -0.649117 -0.615737
-2.60454 -0.858857 -0.687989
-1.94079 1.9067 -0.712493
-1.99892 2.09929 -0.462035
-1.67969 2.25912 -0.597751
-1.88045 2.09631 -0.595578
-1.40351 2.65493 0.156466
-1.3844 2.54923 0.456955
-1.04378 2.77471 0.307903
-1.28251 2.67265 0.308972
-0.203509 1.08714 0.646909
-0.597261 1.17277 0.74478
-0.404115 0.823568 0.558926
-0.402805 1.02026 0.642099
-2.65691 1.26008 -0.372089
-2.82765 1.03598 -0.0953353
-2.6555 1.41993 -0.0957833
-2.72529 1.24372 -0.191119
1.00971 2.03407 0.966172
0.777139 2.31121 0.91223
0.594033 1.98986 0.979329
0.795609 2.12275 0.967157
-0.196541 0.103891 0.343553
-0.4005 0.422577 0.427472
-0.569276 0.111095 0.426851
-0.393191 0.214985 0.388794
-0.121597 2.5021 -0.881422
-0.50398 2.56113 -0.81164
-0.133335 2.74498 -0.682457
-0.254932 2.61476 -0.797582
-2.2653 -0.637558 0.946569
-2.02206 -0.42362 0.983481
-2.34167 -0.215901 0.9474
-2.21747 -0.426717 0.970156
-1.79079 1.88477 -0.819368
-1.54079 2.23023 -0.721379
-1.41679 1.99499 -0.910206
-1.59155 2.04548 -0.826082
2.41303 -1.49679 0.561995
2.1238 -1.71529 0.701849
2.18519 -1.90853 0.456397
2.24974 -1.71413 0.579297
1.92021 -2.25475 -0.316934
1.62745 -2.52416 -0.157174
1.60005 -2.418 -0.460169
1.72211 -2.41066 -0.312895
7.34143e-09 0.979624 -0.588158
0.204819 0.704868 -0.482454
-0.204819 0.704868 -0.482454
2.74749e-08 0.794048 -0.506877
2.70617 0.434418 0.689935
2.44259 0.643328 0.86927
2.51364 0.216878 0.871137
2.56672 0.433464 0.816593
0.596469 1.78741 -0.956443
1.01577 1.84179 -0.983013
0.799948 1.53253 -0.915426
0.804102 1.72802 -0.961111
-2.44259 -0.643328 -0.86927
-2.70617 -0.434418 -0.689935
-2.51364 -0.216878 -0.871137
-2.56672 -0.433464 -0.816593
-2.44259 -0.643328 0.86927
-2.51364 -0.216878 0.871137
-2.70617 -0.434418 0.689935
-2.56672 -0.433464 0.816593
0.188834 2.3155 -0.95053
0.566329 2.38885 -0.904544
0.393751 2.04535 -0.979453
0.384518 2.25588 -0.959594
0.269341 2.82244 -0.568154
0.665067 2.8284 -0.44803
0.645269 2.64684 -0.707245
0.532227 2.77793 -0.578884
0.665067 -2.8284 -0.44803
0.269341 -2.82244 -0.568154
0.645269 -2.64684 -0.707245
0.532227 -2.77793 -0.578884
2.79131 0.217832 -0.618013
2.79131 -0.217832 -0.618013
2.60116 7.32403e-10 -0.818022
2.73938 -3.12698e-09 -0.691556
-0.20385 0.511987 -0.418331
0.20385 0.511987 -0.418331
-1.01383e-10 0.207781 -0.34253
2.74749e-08 0.408285 -0.37863
2.18519 1.90853 -0.456397
2.41303 1.49679 -0.561995
2.1238 1.71529 -0.701849
2.24974 1.71413 -0.579297
2.31651 1.06852 0.855287
2.44748 1.28232 0.665459
2.15557 1.50562 0.797803
2.31596 1.29 0.778714
-0.197295 1.69477 -0.9083
0.197295 1.69477 -0.9083
7.34143e-09 1.37023 -0.772379
-1.9266e-08 1.57549 -0.862228
2.44259 0.643328 -0.86927
2.70617 0.434418 -0.689935
2.51364 0.216878 -0.871137
2.56672 0.433464 -0.816593
-0.898064 0.123454 0.555091
-1.1001 0.507483 0.69735
-1.19743 0.132313 0.695759
-1.06988 0.255767 0.644939
2.79131 0.217832 0.618013
2.60116 -1.77157e-09 0.818022
2.79131 -0.217832 0.618013
2.73938 -5.54587e-10 0.691556
1.63285 -0.422507 -0.904846
1.28683 -0.594173 -0.794078
1.3802 -0.203678 -0.784486
1.43939 -0.413822 -0.830394
-2.0295 2.21184 -0.161213
-2.0295 2.21184 0.161213
-1.73707 2.46594 -1.32869e-09
-1.94101 2.30953 -5.20397e-10
0.538611 -2.91767 -0.302093
0.136429 -3.0021 -0.148281
0.136006 -2.91115 -0.43161
0.272436 -2.95591 -0.296403
-0.669435 2.92799 -0.153971
-0.669435 2.92799 0.153971
-0.272859 3.00423 1.71265e-09
-0.539689 2.96836 -1.6754e-09
-1.95671 -0.212804 0.974057
-1.95671 0.212804 0.974057
-2.25724 4.85937e-09 0.970549
-2.06769 5.53967e-09 0.983881
0.203509 1.08714 -0.646909
0.597261 1.17277 -0.74478
0.404115 0.823568 -0.558926
0.402805 1.02026 -0.642099
0.594904 0.755177 -0.578291
0.784382 1.12558 -0.770894
0.955166 0.83719 -0.724031
0.780715 0.904678 -0.687578
2.99579 -9.70163e-10 0.191352
2.8917 0.216858 0.458851
2.8917 -0.216858 0.458851
2.94016 -5.54587e-10 0.373232
-1.92021 -2.25475 0.316934
-1.62745 -2.52416 0.157174
-1.60005 -2.418 0.460169
-1.72211 -2.41066 0.312895
-0.404115 -0.823568 0.558926
-0.597261 -1.17277 0.74478
-0.203509 -1.08714 0.646909
-0.402805 -1.02026 0.642099
-0.885921 2.56881 -0.715073
-1.25347 2.52278 -0.594569
-0.916078 2.75532 -0.452414
-1.02389 2.62682 -0.591097
1.41808 1.39649 0.976884
1.22758 1.73131 0.982984
1.00406 1.45086 0.927103
1.22003 1.53587 0.972759
0.569276 0.111095 0.426851
0.4005 0.422577 0.427472
0.196541 0.103891 0.343553
0.393191 0.214985 0.388794
3.00402 0.210997 0.095676
2.94495 0.629572 0.0953063
2.9088 0.431241 0.372277
2.96551 0.42538 0.190982
1.01577 -1.84179 -0.983013
0.596469 -1.78741 -0.956443
0.799948 -1.53253 -0.915426
0.804102 -1.72802 -0.961111
